ncols        400
nrows        32
xllcorner    909987.5
yllcorner    6461062.5
cellsize     25.00000000
NODATA_value -99999.00
205.00 205.00 205.00 205.00 205.00 206.00 206.00 206.00 207.00 207.00 207.00 207.00 207.00 207.00 207.00 207.00 207.00 207.00 207.00 206.00 206.00 206.00 205.00 205.00 205.00 205.00 205.00 205.00 205.00 204.00 204.00 204.00 204.00 204.00 204.00 204.00 205.00 205.00 206.00 205.00 205.00 205.00 205.00 206.00 207.00 207.00 207.00 207.00 207.00 207.00 207.00 207.00 206.00 206.00 206.00 207.00 212.00 220.00 230.00 242.00 255.00 270.00 287.00 302.00 313.00 324.00 339.00 354.00 373.00 397.00 425.00 458.00 500.00 539.00 566.00 590.00 611.00 632.00 657.00 683.00 704.00 721.00 745.00 779.00 814.00 848.00 877.00 905.00 931.00 955.00 973.00 987.00 999.00 999.00 978.00 945.00 915.00 896.00 885.00 875.00 869.00 867.00 864.00 855.00 842.00 825.00 809.00 792.00 773.00 753.00 733.00 717.00 700.00 683.00 669.00 659.00 649.00 637.00 626.00 615.00 607.00 599.00 592.00 585.00 578.00 572.00 565.00 560.00 557.00 554.00 551.00 548.00 546.00 543.00 541.00 538.00 536.00 534.00 532.00 530.00 528.00 525.00 523.00 525.00 533.00 539.00 541.00 539.00 534.00 534.00 539.00 545.00 550.00 556.00 561.00 568.00 577.00 588.00 602.00 619.00 639.00 658.00 674.00 691.00 706.00 717.00 727.00 739.00 752.00 766.00 781.00 796.00 811.00 825.00 841.00 858.00 873.00 889.00 906.00 920.00 933.00 946.00 956.00 963.00 969.00 976.00 983.00 989.00 995.00 1000.00 996.00 981.00 969.00 959.00 949.00 938.00 927.00 915.00 902.00 890.00 879.00 865.00 849.00 835.00 821.00 806.00 791.00 776.00 762.00 748.00 734.00 718.00 701.00 682.00 664.00 651.00 645.00 641.00 634.00 625.00 614.00 605.00 601.00 602.00 604.00 606.00 608.00 607.00 605.00 600.00 588.00 569.00 550.00 533.00 519.00 508.00 498.00 488.00 479.00 473.00 467.00 462.00 460.00 460.00 461.00 463.00 464.00 467.00 471.00 477.00 484.00 489.00 493.00 495.00 498.00 500.00 503.00 506.00 510.00 515.00 521.00 525.00 527.00 527.00 527.00 528.00 528.00 529.00 528.00 528.00 527.00 525.00 522.00 519.00 515.00 513.00 510.00 508.00 506.00 503.00 499.00 496.00 494.00 493.00 493.00 494.00 493.00 491.00 488.00 484.00 480.00 474.00 467.00 459.00 451.00 445.00 438.00 431.00 424.00 417.00 411.00 404.00 398.00 392.00 386.00 381.00 380.00 382.00 386.00 389.00 391.00 388.00 380.00 370.00 358.00 348.00 339.00 333.00 330.00 327.00 326.00 326.00 325.00 325.00 325.00 325.00 325.00 325.00 324.00 324.00 324.00 323.00 323.00 322.00 322.00 321.00 320.00 318.00 316.00 315.00 313.00 311.00 310.00 308.00 306.00 304.00 303.00 301.00 300.00 299.00 298.00 297.00 296.00 295.00 295.00 294.00 293.00 292.00 291.00 290.00 289.00 288.00 287.00 286.00 285.00 283.00 283.00 282.00 282.00 281.00 281.00 280.00 280.00 279.00 278.00 276.00 275.00 273.00 271.00 269.00 267.00 264.00 262.00 261.00 259.00 258.00 256.00 255.00 254.00 252.00 251.00 250.00 249.00 248.00 247.00 246.00 244.00 243.00 241.00 240.00
205.00 205.00 205.00 205.00 205.00 205.00 205.00 206.00 207.00 207.00 208.00 208.00 207.00 207.00 207.00 207.00 207.00 206.00 206.00 206.00 206.00 205.00 205.00 205.00 205.00 205.00 205.00 205.00 205.00 205.00 204.00 204.00 204.00 204.00 204.00 204.00 204.00 205.00 205.00 205.00 205.00 205.00 205.00 206.00 206.00 207.00 207.00 207.00 207.00 207.00 207.00 206.00 206.00 205.00 206.00 208.00 213.00 222.00 233.00 245.00 258.00 273.00 289.00 303.00 315.00 327.00 340.00 355.00 374.00 399.00 428.00 464.00 506.00 542.00 568.00 591.00 611.00 630.00 654.00 678.00 697.00 716.00 743.00 777.00 814.00 849.00 880.00 910.00 942.00 971.00 987.00 995.00 994.00 976.00 944.00 911.00 890.00 878.00 869.00 861.00 856.00 855.00 853.00 849.00 839.00 825.00 809.00 793.00 775.00 755.00 733.00 711.00 690.00 671.00 658.00 649.00 639.00 629.00 618.00 610.00 602.00 594.00 586.00 580.00 573.00 566.00 560.00 555.00 553.00 550.00 547.00 544.00 542.00 539.00 537.00 535.00 533.00 531.00 529.00 527.00 525.00 522.00 520.00 524.00 533.00 538.00 538.00 534.00 531.00 533.00 538.00 544.00 550.00 556.00 563.00 570.00 579.00 591.00 606.00 623.00 642.00 659.00 675.00 691.00 705.00 716.00 727.00 739.00 752.00 766.00 781.00 796.00 811.00 826.00 842.00 858.00 874.00 890.00 907.00 922.00 937.00 951.00 962.00 971.00 977.00 983.00 988.00 994.00 999.00 1001.00 992.00 976.00 964.00 955.00 944.00 932.00 920.00 906.00 893.00 882.00 871.00 857.00 841.00 827.00 812.00 797.00 782.00 766.00 752.00 739.00 724.00 707.00 692.00 674.00 657.00 643.00 635.00 629.00 624.00 616.00 606.00 596.00 590.00 590.00 594.00 597.00 599.00 598.00 596.00 589.00 575.00 557.00 538.00 520.00 507.00 498.00 490.00 483.00 476.00 470.00 464.00 460.00 457.00 457.00 458.00 459.00 460.00 463.00 468.00 474.00 481.00 485.00 488.00 490.00 493.00 496.00 499.00 504.00 509.00 514.00 520.00 522.00 523.00 522.00 521.00 520.00 520.00 520.00 520.00 519.00 519.00 517.00 514.00 511.00 508.00 505.00 503.00 501.00 499.00 496.00 493.00 490.00 488.00 488.00 490.00 492.00 491.00 489.00 485.00 479.00 474.00 467.00 460.00 452.00 445.00 439.00 434.00 429.00 424.00 418.00 412.00 407.00 401.00 394.00 385.00 376.00 373.00 374.00 376.00 378.00 380.00 378.00 371.00 362.00 352.00 342.00 335.00 330.00 327.00 324.00 323.00 323.00 322.00 322.00 322.00 322.00 322.00 321.00 321.00 321.00 320.00 320.00 320.00 319.00 319.00 318.00 317.00 316.00 314.00 313.00 311.00 309.00 308.00 306.00 304.00 302.00 301.00 299.00 298.00 297.00 296.00 295.00 295.00 294.00 293.00 292.00 291.00 291.00 290.00 289.00 288.00 287.00 285.00 284.00 283.00 282.00 281.00 281.00 280.00 280.00 279.00 279.00 278.00 277.00 276.00 274.00 273.00 271.00 269.00 267.00 265.00 264.00 262.00 260.00 259.00 257.00 256.00 255.00 253.00 252.00 251.00 250.00 249.00 248.00 247.00 246.00 245.00 243.00 241.00 240.00
205.00 205.00 205.00 204.00 204.00 204.00 205.00 206.00 207.00 207.00 208.00 208.00 207.00 207.00 207.00 206.00 206.00 206.00 206.00 205.00 205.00 205.00 205.00 205.00 205.00 205.00 205.00 205.00 205.00 205.00 205.00 204.00 204.00 204.00 204.00 204.00 205.00 205.00 205.00 205.00 205.00 205.00 205.00 205.00 206.00 207.00 207.00 207.00 207.00 207.00 206.00 206.00 205.00 206.00 206.00 208.00 213.00 224.00 236.00 248.00 261.00 276.00 292.00 306.00 319.00 332.00 344.00 360.00 380.00 403.00 432.00 470.00 512.00 544.00 570.00 593.00 611.00 629.00 652.00 675.00 695.00 717.00 743.00 777.00 815.00 851.00 882.00 913.00 950.00 983.00 996.00 991.00 974.00 943.00 908.00 882.00 869.00 861.00 854.00 849.00 846.00 843.00 842.00 840.00 835.00 823.00 809.00 794.00 777.00 758.00 736.00 714.00 690.00 670.00 654.00 642.00 629.00 618.00 609.00 602.00 595.00 587.00 581.00 574.00 568.00 561.00 555.00 551.00 548.00 545.00 542.00 540.00 537.00 535.00 533.00 531.00 529.00 527.00 525.00 523.00 521.00 517.00 517.00 523.00 531.00 535.00 533.00 530.00 529.00 532.00 537.00 543.00 549.00 556.00 563.00 572.00 582.00 594.00 609.00 626.00 644.00 659.00 674.00 689.00 702.00 714.00 725.00 738.00 751.00 766.00 782.00 797.00 812.00 826.00 843.00 859.00 875.00 892.00 909.00 925.00 941.00 957.00 970.00 978.00 985.00 990.00 995.00 1000.00 1004.00 1002.00 988.00 971.00 960.00 950.00 938.00 924.00 911.00 897.00 885.00 874.00 862.00 848.00 834.00 819.00 803.00 787.00 772.00 757.00 744.00 730.00 713.00 698.00 683.00 666.00 650.00 637.00 627.00 619.00 614.00 606.00 597.00 588.00 581.00 581.00 586.00 590.00 593.00 592.00 588.00 580.00 565.00 546.00 527.00 511.00 499.00 491.00 485.00 479.00 473.00 467.00 462.00 457.00 454.00 453.00 454.00 456.00 458.00 460.00 465.00 471.00 477.00 481.00 483.00 485.00 488.00 492.00 496.00 501.00 507.00 512.00 517.00 518.00 517.00 516.00 514.00 513.00 512.00 512.00 512.00 512.00 511.00 509.00 506.00 503.00 500.00 498.00 496.00 494.00 492.00 489.00 487.00 484.00 482.00 484.00 488.00 490.00 489.00 487.00 482.00 475.00 467.00 459.00 452.00 445.00 440.00 435.00 431.00 427.00 422.00 418.00 414.00 409.00 404.00 396.00 385.00 374.00 368.00 366.00 366.00 368.00 369.00 367.00 362.00 354.00 345.00 337.00 331.00 327.00 323.00 321.00 320.00 320.00 319.00 319.00 319.00 319.00 318.00 318.00 318.00 318.00 318.00 317.00 317.00 317.00 316.00 316.00 315.00 313.00 312.00 310.00 309.00 307.00 306.00 304.00 302.00 301.00 299.00 298.00 296.00 295.00 294.00 294.00 293.00 292.00 291.00 290.00 290.00 289.00 288.00 287.00 286.00 285.00 284.00 283.00 281.00 280.00 280.00 279.00 279.00 278.00 278.00 277.00 276.00 275.00 274.00 272.00 271.00 269.00 268.00 266.00 264.00 263.00 261.00 260.00 258.00 257.00 255.00 254.00 253.00 252.00 251.00 250.00 249.00 248.00 247.00 246.00 244.00 243.00 241.00 240.00
205.00 205.00 205.00 204.00 204.00 204.00 204.00 205.00 206.00 207.00 207.00 208.00 207.00 207.00 207.00 206.00 206.00 206.00 205.00 205.00 205.00 205.00 205.00 205.00 205.00 205.00 205.00 205.00 205.00 205.00 205.00 205.00 205.00 205.00 205.00 205.00 205.00 204.00 204.00 204.00 204.00 204.00 205.00 205.00 206.00 206.00 207.00 207.00 207.00 206.00 206.00 206.00 205.00 206.00 207.00 209.00 215.00 226.00 238.00 251.00 264.00 280.00 295.00 309.00 322.00 335.00 349.00 365.00 385.00 406.00 435.00 475.00 517.00 547.00 572.00 595.00 612.00 629.00 652.00 675.00 695.00 719.00 745.00 778.00 816.00 853.00 885.00 917.00 954.00 984.00 987.00 968.00 940.00 907.00 878.00 859.00 849.00 844.00 839.00 836.00 833.00 830.00 827.00 827.00 825.00 819.00 808.00 794.00 778.00 761.00 740.00 716.00 692.00 672.00 654.00 638.00 621.00 607.00 598.00 592.00 586.00 580.00 575.00 569.00 563.00 556.00 551.00 547.00 544.00 541.00 539.00 536.00 534.00 532.00 530.00 528.00 526.00 524.00 522.00 519.00 516.00 513.00 515.00 524.00 530.00 531.00 528.00 525.00 527.00 532.00 537.00 543.00 549.00 555.00 562.00 571.00 582.00 596.00 611.00 628.00 644.00 657.00 672.00 685.00 698.00 710.00 722.00 736.00 751.00 766.00 782.00 798.00 812.00 827.00 843.00 860.00 876.00 894.00 911.00 928.00 946.00 964.00 977.00 987.00 993.00 997.00 1002.00 1006.00 1009.00 1001.00 983.00 967.00 956.00 944.00 930.00 916.00 902.00 889.00 877.00 865.00 853.00 840.00 825.00 809.00 793.00 777.00 762.00 748.00 736.00 721.00 704.00 689.00 674.00 659.00 645.00 632.00 621.00 612.00 603.00 595.00 587.00 579.00 573.00 573.00 579.00 584.00 587.00 586.00 581.00 571.00 557.00 539.00 520.00 504.00 493.00 486.00 480.00 475.00 470.00 465.00 460.00 454.00 451.00 450.00 451.00 453.00 455.00 458.00 462.00 467.00 472.00 476.00 478.00 480.00 483.00 488.00 493.00 499.00 504.00 509.00 512.00 512.00 511.00 509.00 506.00 505.00 505.00 505.00 505.00 505.00 504.00 501.00 499.00 495.00 493.00 491.00 489.00 487.00 485.00 482.00 480.00 478.00 479.00 482.00 486.00 488.00 487.00 484.00 478.00 469.00 460.00 452.00 445.00 439.00 434.00 430.00 427.00 423.00 420.00 417.00 414.00 410.00 405.00 397.00 385.00 373.00 365.00 361.00 359.00 358.00 358.00 357.00 353.00 347.00 339.00 332.00 326.00 323.00 320.00 318.00 317.00 316.00 316.00 316.00 316.00 316.00 315.00 315.00 315.00 315.00 315.00 315.00 315.00 314.00 314.00 313.00 312.00 311.00 310.00 308.00 307.00 305.00 304.00 302.00 300.00 299.00 297.00 296.00 295.00 294.00 293.00 292.00 291.00 290.00 290.00 289.00 288.00 287.00 286.00 285.00 284.00 283.00 282.00 281.00 280.00 279.00 278.00 278.00 277.00 277.00 276.00 275.00 274.00 273.00 272.00 271.00 269.00 268.00 266.00 265.00 263.00 262.00 260.00 259.00 257.00 256.00 255.00 253.00 252.00 251.00 250.00 249.00 248.00 247.00 246.00 245.00 244.00 242.00 241.00 240.00
205.00 205.00 204.00 204.00 204.00 203.00 203.00 204.00 205.00 206.00 207.00 207.00 207.00 207.00 207.00 206.00 206.00 206.00 205.00 205.00 205.00 205.00 205.00 205.00 205.00 205.00 205.00 205.00 205.00 205.00 205.00 205.00 205.00 205.00 205.00 205.00 205.00 204.00 204.00 204.00 204.00 204.00 205.00 205.00 205.00 206.00 206.00 206.00 206.00 206.00 206.00 206.00 205.00 205.00 206.00 210.00 217.00 228.00 241.00 254.00 268.00 283.00 298.00 311.00 325.00 338.00 352.00 369.00 388.00 409.00 439.00 482.00 523.00 551.00 575.00 597.00 614.00 631.00 653.00 677.00 697.00 721.00 747.00 780.00 818.00 855.00 888.00 920.00 953.00 970.00 960.00 935.00 904.00 874.00 851.00 837.00 831.00 826.00 822.00 819.00 816.00 813.00 811.00 812.00 813.00 811.00 804.00 792.00 776.00 760.00 741.00 716.00 692.00 672.00 653.00 636.00 618.00 601.00 590.00 582.00 576.00 572.00 568.00 564.00 557.00 551.00 546.00 542.00 539.00 537.00 534.00 532.00 530.00 528.00 526.00 524.00 522.00 520.00 518.00 516.00 511.00 511.00 516.00 524.00 529.00 528.00 523.00 522.00 527.00 534.00 540.00 545.00 550.00 556.00 562.00 570.00 582.00 597.00 612.00 628.00 642.00 654.00 667.00 680.00 693.00 705.00 718.00 732.00 747.00 763.00 781.00 798.00 813.00 828.00 845.00 862.00 878.00 896.00 915.00 932.00 952.00 972.00 986.00 995.00 1000.00 1005.00 1010.00 1013.00 1011.00 997.00 978.00 963.00 950.00 937.00 923.00 908.00 895.00 883.00 869.00 856.00 845.00 832.00 816.00 799.00 784.00 768.00 754.00 741.00 728.00 712.00 696.00 681.00 666.00 653.00 639.00 626.00 614.00 604.00 593.00 583.00 576.00 570.00 565.00 565.00 571.00 577.00 580.00 578.00 571.00 564.00 553.00 536.00 517.00 500.00 489.00 481.00 475.00 471.00 466.00 462.00 457.00 453.00 448.00 447.00 448.00 450.00 453.00 455.00 459.00 463.00 467.00 470.00 473.00 476.00 479.00 485.00 490.00 496.00 501.00 504.00 506.00 505.00 503.00 501.00 499.00 498.00 498.00 498.00 499.00 498.00 497.00 495.00 491.00 488.00 486.00 484.00 482.00 480.00 477.00 475.00 473.00 473.00 476.00 481.00 484.00 485.00 482.00 477.00 471.00 462.00 453.00 445.00 438.00 433.00 428.00 425.00 421.00 419.00 416.00 414.00 412.00 409.00 404.00 396.00 384.00 372.00 363.00 357.00 353.00 351.00 350.00 348.00 344.00 339.00 333.00 327.00 322.00 319.00 317.00 315.00 314.00 313.00 313.00 313.00 313.00 313.00 313.00 313.00 313.00 313.00 312.00 312.00 312.00 312.00 311.00 311.00 310.00 309.00 307.00 306.00 305.00 303.00 302.00 300.00 299.00 297.00 296.00 295.00 293.00 292.00 291.00 290.00 289.00 289.00 288.00 287.00 286.00 286.00 285.00 284.00 283.00 282.00 281.00 280.00 279.00 278.00 277.00 276.00 276.00 275.00 274.00 274.00 273.00 272.00 270.00 269.00 268.00 266.00 265.00 263.00 262.00 261.00 259.00 258.00 257.00 255.00 254.00 253.00 252.00 250.00 249.00 248.00 247.00 246.00 245.00 244.00 243.00 242.00 241.00 240.00
204.00 204.00 204.00 204.00 204.00 204.00 203.00 204.00 204.00 205.00 206.00 207.00 207.00 207.00 206.00 206.00 206.00 205.00 205.00 205.00 205.00 205.00 205.00 204.00 205.00 205.00 205.00 205.00 205.00 205.00 205.00 205.00 205.00 205.00 205.00 205.00 205.00 204.00 204.00 204.00 204.00 205.00 205.00 205.00 205.00 205.00 205.00 205.00 205.00 205.00 205.00 205.00 205.00 205.00 206.00 210.00 219.00 232.00 245.00 258.00 272.00 287.00 301.00 314.00 327.00 340.00 355.00 372.00 390.00 412.00 447.00 491.00 528.00 555.00 578.00 600.00 617.00 634.00 656.00 679.00 700.00 723.00 750.00 782.00 820.00 857.00 891.00 922.00 946.00 948.00 928.00 899.00 870.00 846.00 828.00 817.00 812.00 808.00 805.00 802.00 799.00 797.00 796.00 797.00 799.00 799.00 796.00 786.00 772.00 757.00 739.00 714.00 690.00 671.00 651.00 633.00 615.00 599.00 588.00 578.00 569.00 563.00 560.00 556.00 551.00 546.00 542.00 538.00 534.00 532.00 529.00 528.00 526.00 524.00 522.00 521.00 519.00 517.00 515.00 511.00 507.00 508.00 515.00 522.00 525.00 523.00 520.00 522.00 528.00 535.00 541.00 546.00 551.00 558.00 564.00 571.00 583.00 598.00 613.00 628.00 641.00 651.00 663.00 675.00 688.00 700.00 711.00 725.00 744.00 764.00 781.00 798.00 813.00 829.00 846.00 863.00 880.00 899.00 919.00 936.00 958.00 981.00 995.00 1003.00 1009.00 1014.00 1018.00 1019.00 1011.00 993.00 973.00 958.00 944.00 930.00 916.00 902.00 890.00 877.00 862.00 849.00 839.00 825.00 807.00 791.00 775.00 760.00 746.00 734.00 719.00 703.00 688.00 674.00 660.00 647.00 633.00 619.00 605.00 592.00 581.00 571.00 563.00 559.00 556.00 557.00 563.00 568.00 571.00 568.00 562.00 556.00 548.00 534.00 514.00 497.00 484.00 475.00 470.00 465.00 462.00 458.00 454.00 450.00 445.00 443.00 446.00 448.00 450.00 452.00 455.00 458.00 462.00 466.00 469.00 473.00 477.00 482.00 488.00 493.00 497.00 499.00 499.00 498.00 496.00 493.00 491.00 490.00 492.00 493.00 493.00 492.00 491.00 488.00 485.00 481.00 479.00 477.00 475.00 473.00 470.00 467.00 466.00 467.00 472.00 478.00 480.00 479.00 474.00 468.00 461.00 453.00 445.00 438.00 432.00 427.00 423.00 420.00 417.00 414.00 412.00 410.00 409.00 407.00 402.00 393.00 383.00 371.00 362.00 354.00 349.00 346.00 343.00 340.00 337.00 332.00 327.00 323.00 319.00 316.00 314.00 312.00 311.00 310.00 310.00 310.00 310.00 310.00 310.00 310.00 310.00 310.00 310.00 310.00 309.00 309.00 309.00 308.00 307.00 306.00 305.00 304.00 302.00 301.00 300.00 298.00 297.00 296.00 294.00 293.00 292.00 291.00 290.00 289.00 288.00 287.00 286.00 286.00 285.00 284.00 283.00 283.00 282.00 280.00 279.00 278.00 277.00 276.00 276.00 275.00 274.00 273.00 273.00 272.00 271.00 270.00 269.00 267.00 266.00 265.00 264.00 262.00 261.00 260.00 258.00 257.00 256.00 254.00 253.00 252.00 251.00 249.00 248.00 247.00 246.00 245.00 244.00 243.00 242.00 241.00 240.00 239.00
204.00 204.00 204.00 204.00 204.00 204.00 204.00 204.00 204.00 204.00 205.00 206.00 206.00 206.00 206.00 206.00 205.00 205.00 205.00 205.00 205.00 205.00 204.00 204.00 205.00 205.00 205.00 205.00 205.00 205.00 205.00 205.00 205.00 205.00 205.00 205.00 205.00 204.00 204.00 204.00 204.00 205.00 206.00 206.00 205.00 205.00 205.00 204.00 204.00 204.00 205.00 205.00 205.00 205.00 206.00 212.00 223.00 236.00 249.00 262.00 276.00 291.00 305.00 316.00 329.00 342.00 356.00 373.00 391.00 416.00 456.00 500.00 533.00 559.00 583.00 603.00 619.00 637.00 659.00 682.00 702.00 725.00 752.00 785.00 822.00 859.00 893.00 919.00 932.00 920.00 894.00 867.00 841.00 820.00 806.00 799.00 795.00 792.00 789.00 787.00 784.00 782.00 781.00 783.00 787.00 788.00 785.00 778.00 766.00 751.00 732.00 709.00 686.00 666.00 647.00 628.00 609.00 595.00 584.00 575.00 566.00 558.00 552.00 547.00 544.00 541.00 537.00 533.00 529.00 526.00 525.00 523.00 522.00 520.00 518.00 517.00 515.00 513.00 510.00 506.00 502.00 504.00 512.00 519.00 521.00 519.00 517.00 520.00 526.00 533.00 540.00 546.00 552.00 559.00 566.00 574.00 586.00 600.00 613.00 628.00 640.00 650.00 661.00 672.00 684.00 696.00 711.00 729.00 748.00 766.00 782.00 799.00 815.00 831.00 848.00 865.00 883.00 902.00 922.00 941.00 968.00 992.00 1004.00 1011.00 1018.00 1024.00 1027.00 1023.00 1008.00 987.00 968.00 952.00 937.00 923.00 910.00 898.00 885.00 872.00 857.00 844.00 833.00 818.00 799.00 782.00 767.00 753.00 740.00 726.00 711.00 695.00 681.00 667.00 654.00 641.00 626.00 611.00 596.00 582.00 570.00 561.00 553.00 549.00 547.00 547.00 551.00 557.00 559.00 557.00 552.00 548.00 542.00 529.00 511.00 492.00 477.00 469.00 463.00 459.00 456.00 453.00 449.00 444.00 440.00 441.00 444.00 446.00 448.00 449.00 451.00 454.00 457.00 462.00 466.00 471.00 476.00 482.00 487.00 491.00 493.00 494.00 493.00 491.00 489.00 486.00 483.00 484.00 487.00 488.00 488.00 486.00 484.00 481.00 479.00 476.00 473.00 472.00 469.00 467.00 463.00 460.00 458.00 460.00 464.00 470.00 472.00 469.00 463.00 457.00 450.00 444.00 437.00 432.00 427.00 422.00 418.00 415.00 412.00 410.00 407.00 406.00 404.00 402.00 397.00 389.00 379.00 369.00 360.00 351.00 345.00 340.00 337.00 334.00 331.00 327.00 323.00 319.00 316.00 313.00 311.00 310.00 309.00 308.00 307.00 307.00 307.00 308.00 308.00 308.00 308.00 308.00 307.00 307.00 307.00 306.00 306.00 305.00 305.00 304.00 303.00 301.00 300.00 299.00 298.00 296.00 295.00 294.00 293.00 291.00 290.00 289.00 288.00 287.00 286.00 285.00 285.00 284.00 283.00 283.00 282.00 281.00 280.00 279.00 278.00 277.00 276.00 275.00 274.00 273.00 273.00 272.00 271.00 270.00 269.00 268.00 267.00 266.00 265.00 263.00 262.00 261.00 260.00 258.00 257.00 256.00 255.00 254.00 252.00 251.00 250.00 249.00 247.00 246.00 245.00 244.00 243.00 243.00 242.00 241.00 240.00 239.00
204.00 204.00 204.00 204.00 204.00 204.00 204.00 204.00 204.00 204.00 204.00 205.00 206.00 206.00 206.00 205.00 205.00 205.00 205.00 205.00 204.00 204.00 204.00 204.00 205.00 205.00 205.00 205.00 205.00 205.00 205.00 205.00 205.00 205.00 205.00 205.00 205.00 204.00 204.00 204.00 204.00 205.00 206.00 206.00 206.00 205.00 205.00 204.00 204.00 204.00 204.00 204.00 205.00 205.00 208.00 216.00 228.00 241.00 254.00 266.00 280.00 295.00 308.00 319.00 331.00 343.00 357.00 373.00 392.00 420.00 463.00 507.00 538.00 565.00 588.00 606.00 622.00 640.00 663.00 684.00 705.00 728.00 756.00 788.00 824.00 861.00 893.00 913.00 914.00 892.00 865.00 839.00 815.00 796.00 785.00 780.00 776.00 774.00 771.00 769.00 767.00 765.00 765.00 769.00 774.00 776.00 774.00 767.00 756.00 743.00 723.00 700.00 679.00 659.00 639.00 619.00 603.00 590.00 581.00 572.00 563.00 554.00 546.00 539.00 536.00 534.00 531.00 528.00 524.00 521.00 520.00 519.00 517.00 516.00 514.00 512.00 510.00 508.00 505.00 502.00 500.00 502.00 507.00 512.00 514.00 513.00 513.00 517.00 523.00 530.00 537.00 544.00 552.00 560.00 568.00 577.00 588.00 601.00 615.00 628.00 641.00 652.00 663.00 675.00 688.00 702.00 718.00 736.00 753.00 768.00 783.00 800.00 817.00 833.00 851.00 869.00 888.00 908.00 930.00 954.00 981.00 1001.00 1011.00 1020.00 1028.00 1032.00 1032.00 1023.00 1003.00 980.00 963.00 947.00 932.00 918.00 905.00 893.00 881.00 868.00 853.00 840.00 827.00 811.00 792.00 776.00 761.00 747.00 734.00 719.00 703.00 688.00 673.00 660.00 648.00 634.00 618.00 603.00 589.00 575.00 564.00 554.00 544.00 539.00 536.00 535.00 537.00 544.00 547.00 545.00 542.00 539.00 534.00 522.00 504.00 484.00 470.00 463.00 458.00 454.00 450.00 446.00 442.00 438.00 435.00 437.00 441.00 444.00 444.00 444.00 446.00 449.00 454.00 459.00 464.00 470.00 476.00 481.00 485.00 488.00 489.00 488.00 487.00 485.00 482.00 480.00 478.00 479.00 483.00 484.00 482.00 481.00 479.00 476.00 474.00 471.00 469.00 467.00 465.00 462.00 458.00 455.00 451.00 451.00 455.00 459.00 460.00 457.00 451.00 445.00 440.00 435.00 430.00 425.00 421.00 417.00 414.00 410.00 407.00 405.00 402.00 400.00 397.00 394.00 389.00 381.00 373.00 364.00 355.00 347.00 340.00 336.00 332.00 329.00 327.00 323.00 320.00 316.00 313.00 311.00 309.00 307.00 306.00 305.00 305.00 305.00 305.00 305.00 306.00 306.00 306.00 305.00 305.00 305.00 304.00 304.00 303.00 303.00 302.00 301.00 300.00 299.00 298.00 297.00 295.00 294.00 293.00 292.00 291.00 290.00 289.00 288.00 287.00 286.00 285.00 284.00 283.00 282.00 282.00 281.00 280.00 279.00 278.00 277.00 276.00 275.00 274.00 273.00 273.00 272.00 271.00 270.00 269.00 269.00 268.00 267.00 266.00 265.00 263.00 262.00 261.00 260.00 258.00 257.00 256.00 255.00 254.00 253.00 252.00 250.00 249.00 248.00 246.00 245.00 244.00 243.00 242.00 242.00 241.00 240.00 240.00 239.00
204.00 204.00 204.00 204.00 204.00 204.00 204.00 204.00 204.00 204.00 204.00 204.00 205.00 206.00 206.00 205.00 205.00 205.00 205.00 204.00 204.00 204.00 204.00 204.00 204.00 205.00 205.00 205.00 205.00 205.00 205.00 205.00 205.00 205.00 205.00 205.00 205.00 204.00 204.00 204.00 204.00 205.00 205.00 206.00 206.00 206.00 205.00 204.00 204.00 204.00 204.00 204.00 205.00 206.00 210.00 220.00 233.00 246.00 258.00 271.00 285.00 299.00 310.00 321.00 333.00 345.00 358.00 374.00 393.00 423.00 471.00 515.00 545.00 571.00 594.00 610.00 624.00 643.00 667.00 688.00 708.00 731.00 759.00 791.00 826.00 862.00 889.00 903.00 894.00 866.00 837.00 812.00 790.00 774.00 765.00 761.00 758.00 755.00 753.00 751.00 750.00 749.00 750.00 754.00 760.00 762.00 761.00 755.00 745.00 730.00 710.00 688.00 669.00 650.00 630.00 611.00 597.00 585.00 576.00 568.00 559.00 550.00 540.00 532.00 528.00 528.00 526.00 523.00 519.00 516.00 515.00 514.00 512.00 511.00 509.00 506.00 504.00 501.00 498.00 495.00 495.00 497.00 500.00 502.00 505.00 508.00 512.00 517.00 523.00 530.00 537.00 544.00 552.00 560.00 568.00 577.00 588.00 600.00 612.00 624.00 637.00 650.00 663.00 676.00 691.00 706.00 721.00 739.00 756.00 770.00 785.00 802.00 820.00 836.00 855.00 874.00 893.00 915.00 943.00 972.00 994.00 1008.00 1018.00 1028.00 1034.00 1035.00 1030.00 1017.00 995.00 974.00 958.00 944.00 929.00 915.00 901.00 888.00 877.00 863.00 848.00 834.00 821.00 804.00 786.00 771.00 756.00 742.00 728.00 712.00 696.00 681.00 667.00 654.00 641.00 625.00 610.00 596.00 584.00 572.00 562.00 550.00 538.00 530.00 524.00 521.00 525.00 534.00 539.00 538.00 535.00 532.00 526.00 515.00 495.00 476.00 465.00 458.00 453.00 449.00 444.00 440.00 437.00 433.00 431.00 434.00 437.00 439.00 440.00 439.00 441.00 445.00 451.00 456.00 462.00 469.00 475.00 480.00 483.00 484.00 484.00 482.00 480.00 478.00 476.00 474.00 474.00 475.00 477.00 478.00 478.00 476.00 474.00 472.00 469.00 467.00 465.00 463.00 461.00 458.00 455.00 451.00 446.00 443.00 445.00 447.00 448.00 444.00 439.00 434.00 430.00 426.00 422.00 419.00 416.00 413.00 409.00 406.00 403.00 399.00 396.00 393.00 389.00 385.00 378.00 371.00 364.00 356.00 348.00 341.00 335.00 331.00 328.00 326.00 323.00 320.00 317.00 314.00 311.00 309.00 307.00 305.00 304.00 303.00 302.00 302.00 303.00 303.00 303.00 303.00 303.00 303.00 303.00 302.00 302.00 301.00 301.00 300.00 300.00 299.00 298.00 297.00 296.00 294.00 293.00 292.00 291.00 290.00 289.00 288.00 287.00 286.00 285.00 284.00 283.00 282.00 281.00 280.00 280.00 279.00 278.00 277.00 277.00 276.00 275.00 274.00 273.00 272.00 271.00 270.00 270.00 269.00 268.00 267.00 266.00 265.00 264.00 263.00 262.00 261.00 260.00 258.00 257.00 256.00 255.00 254.00 253.00 252.00 251.00 249.00 248.00 247.00 246.00 244.00 243.00 242.00 242.00 241.00 240.00 240.00 239.00 238.00
204.00 204.00 204.00 204.00 204.00 204.00 204.00 204.00 204.00 204.00 204.00 204.00 205.00 205.00 206.00 205.00 205.00 205.00 204.00 204.00 204.00 204.00 204.00 204.00 204.00 204.00 205.00 205.00 205.00 205.00 205.00 205.00 205.00 205.00 205.00 205.00 205.00 205.00 204.00 204.00 204.00 204.00 204.00 205.00 206.00 206.00 205.00 205.00 204.00 204.00 204.00 204.00 205.00 207.00 213.00 224.00 237.00 250.00 262.00 275.00 289.00 301.00 312.00 323.00 334.00 346.00 358.00 374.00 394.00 426.00 478.00 523.00 552.00 578.00 599.00 613.00 628.00 648.00 671.00 692.00 712.00 735.00 762.00 794.00 828.00 860.00 882.00 887.00 871.00 840.00 809.00 784.00 767.00 756.00 749.00 745.00 741.00 739.00 737.00 736.00 735.00 735.00 736.00 741.00 746.00 748.00 747.00 741.00 731.00 714.00 694.00 677.00 659.00 639.00 620.00 604.00 591.00 579.00 571.00 563.00 554.00 545.00 535.00 526.00 522.00 522.00 521.00 518.00 514.00 511.00 510.00 509.00 507.00 505.00 503.00 499.00 497.00 494.00 491.00 490.00 493.00 498.00 501.00 503.00 506.00 509.00 514.00 519.00 525.00 531.00 537.00 544.00 552.00 560.00 569.00 578.00 589.00 600.00 611.00 620.00 631.00 645.00 659.00 675.00 693.00 709.00 723.00 741.00 758.00 772.00 788.00 806.00 823.00 841.00 861.00 881.00 902.00 927.00 957.00 983.00 1001.00 1013.00 1024.00 1033.00 1038.00 1036.00 1026.00 1009.00 986.00 967.00 953.00 941.00 928.00 913.00 897.00 884.00 871.00 857.00 842.00 829.00 815.00 799.00 781.00 765.00 750.00 736.00 723.00 707.00 689.00 674.00 661.00 648.00 633.00 616.00 600.00 586.00 575.00 567.00 560.00 550.00 536.00 523.00 513.00 511.00 519.00 528.00 532.00 531.00 528.00 525.00 518.00 506.00 487.00 470.00 461.00 455.00 450.00 444.00 440.00 436.00 432.00 429.00 428.00 430.00 433.00 435.00 435.00 436.00 439.00 443.00 449.00 455.00 461.00 467.00 472.00 476.00 479.00 479.00 478.00 476.00 474.00 472.00 470.00 469.00 469.00 471.00 472.00 473.00 473.00 471.00 469.00 467.00 465.00 463.00 461.00 460.00 458.00 455.00 453.00 449.00 443.00 438.00 436.00 437.00 436.00 433.00 429.00 425.00 421.00 418.00 415.00 413.00 411.00 408.00 405.00 401.00 398.00 394.00 389.00 385.00 380.00 375.00 368.00 359.00 352.00 345.00 339.00 333.00 328.00 325.00 324.00 322.00 320.00 318.00 315.00 312.00 310.00 307.00 305.00 304.00 302.00 301.00 300.00 300.00 300.00 301.00 301.00 301.00 301.00 300.00 300.00 300.00 299.00 299.00 298.00 298.00 297.00 296.00 295.00 294.00 293.00 292.00 291.00 290.00 289.00 288.00 288.00 286.00 285.00 284.00 283.00 282.00 281.00 280.00 279.00 279.00 278.00 277.00 276.00 276.00 275.00 274.00 273.00 272.00 271.00 271.00 270.00 269.00 268.00 267.00 266.00 266.00 265.00 264.00 263.00 262.00 261.00 260.00 258.00 257.00 256.00 255.00 254.00 253.00 252.00 251.00 250.00 249.00 247.00 246.00 245.00 244.00 243.00 242.00 241.00 240.00 240.00 239.00 238.00 238.00
203.00 203.00 204.00 204.00 204.00 204.00 204.00 204.00 204.00 204.00 204.00 204.00 204.00 205.00 206.00 205.00 205.00 205.00 204.00 204.00 204.00 204.00 204.00 204.00 204.00 204.00 204.00 204.00 204.00 204.00 205.00 205.00 205.00 205.00 205.00 205.00 205.00 205.00 205.00 204.00 204.00 204.00 204.00 204.00 205.00 206.00 206.00 205.00 205.00 204.00 204.00 205.00 205.00 208.00 215.00 226.00 239.00 252.00 264.00 278.00 291.00 303.00 314.00 325.00 336.00 347.00 359.00 374.00 395.00 432.00 487.00 530.00 559.00 585.00 603.00 616.00 632.00 653.00 675.00 697.00 717.00 739.00 767.00 797.00 828.00 856.00 871.00 869.00 848.00 816.00 782.00 758.00 746.00 739.00 734.00 730.00 726.00 724.00 722.00 721.00 720.00 720.00 722.00 727.00 731.00 734.00 733.00 728.00 716.00 699.00 681.00 666.00 648.00 628.00 610.00 597.00 584.00 574.00 565.00 557.00 548.00 540.00 529.00 519.00 513.00 514.00 515.00 513.00 510.00 507.00 505.00 503.00 501.00 499.00 496.00 493.00 490.00 486.00 485.00 489.00 495.00 501.00 505.00 508.00 512.00 516.00 520.00 524.00 528.00 533.00 539.00 546.00 553.00 562.00 573.00 587.00 601.00 612.00 621.00 629.00 636.00 647.00 660.00 677.00 696.00 712.00 727.00 745.00 761.00 775.00 791.00 810.00 828.00 849.00 869.00 888.00 911.00 940.00 967.00 988.00 1004.00 1016.00 1028.00 1037.00 1040.00 1034.00 1019.00 999.00 977.00 960.00 948.00 937.00 925.00 910.00 894.00 880.00 866.00 852.00 838.00 824.00 812.00 795.00 777.00 759.00 743.00 729.00 717.00 701.00 684.00 668.00 655.00 641.00 624.00 606.00 589.00 575.00 566.00 560.00 556.00 547.00 532.00 517.00 505.00 503.00 513.00 522.00 526.00 525.00 521.00 515.00 504.00 491.00 477.00 465.00 457.00 451.00 446.00 440.00 436.00 431.00 427.00 424.00 424.00 426.00 428.00 430.00 431.00 433.00 437.00 441.00 447.00 453.00 459.00 465.00 469.00 472.00 474.00 473.00 472.00 470.00 467.00 466.00 464.00 464.00 465.00 466.00 467.00 468.00 467.00 467.00 465.00 463.00 462.00 460.00 458.00 457.00 455.00 453.00 450.00 447.00 441.00 435.00 430.00 428.00 426.00 423.00 420.00 417.00 414.00 410.00 408.00 407.00 406.00 403.00 400.00 397.00 394.00 388.00 382.00 375.00 369.00 364.00 357.00 348.00 340.00 334.00 329.00 325.00 321.00 320.00 319.00 318.00 317.00 315.00 313.00 310.00 308.00 306.00 304.00 302.00 300.00 299.00 298.00 298.00 298.00 298.00 298.00 299.00 298.00 298.00 298.00 297.00 297.00 296.00 296.00 295.00 294.00 294.00 293.00 292.00 291.00 290.00 289.00 288.00 287.00 287.00 286.00 285.00 284.00 283.00 281.00 280.00 280.00 279.00 278.00 277.00 276.00 275.00 275.00 274.00 273.00 272.00 271.00 271.00 270.00 269.00 268.00 267.00 267.00 266.00 265.00 264.00 263.00 262.00 261.00 261.00 259.00 258.00 257.00 256.00 255.00 254.00 253.00 252.00 251.00 250.00 249.00 248.00 247.00 245.00 244.00 243.00 242.00 241.00 240.00 239.00 239.00 238.00 238.00 237.00
203.00 203.00 203.00 204.00 204.00 204.00 204.00 204.00 204.00 204.00 204.00 204.00 204.00 204.00 205.00 205.00 205.00 205.00 204.00 204.00 204.00 204.00 204.00 204.00 204.00 204.00 204.00 204.00 204.00 204.00 204.00 205.00 205.00 205.00 205.00 205.00 205.00 205.00 205.00 204.00 204.00 204.00 204.00 204.00 205.00 206.00 206.00 205.00 205.00 205.00 205.00 205.00 206.00 208.00 216.00 228.00 240.00 253.00 265.00 279.00 293.00 305.00 315.00 326.00 337.00 348.00 360.00 376.00 398.00 438.00 494.00 536.00 565.00 590.00 606.00 619.00 635.00 657.00 681.00 703.00 722.00 744.00 771.00 800.00 828.00 851.00 860.00 851.00 826.00 793.00 758.00 736.00 729.00 723.00 718.00 713.00 710.00 708.00 706.00 705.00 704.00 705.00 709.00 714.00 718.00 721.00 721.00 714.00 701.00 685.00 669.00 654.00 635.00 617.00 602.00 589.00 577.00 568.00 559.00 550.00 543.00 535.00 525.00 514.00 507.00 506.00 508.00 508.00 506.00 503.00 500.00 497.00 494.00 491.00 488.00 485.00 482.00 481.00 485.00 492.00 498.00 504.00 509.00 515.00 521.00 526.00 529.00 532.00 533.00 537.00 542.00 549.00 556.00 566.00 579.00 595.00 609.00 621.00 632.00 641.00 648.00 656.00 667.00 682.00 700.00 715.00 731.00 748.00 764.00 778.00 796.00 815.00 835.00 856.00 877.00 896.00 922.00 950.00 973.00 992.00 1006.00 1018.00 1031.00 1039.00 1039.00 1029.00 1011.00 989.00 969.00 954.00 941.00 929.00 918.00 904.00 889.00 876.00 862.00 847.00 833.00 821.00 808.00 792.00 773.00 755.00 738.00 723.00 708.00 693.00 677.00 662.00 649.00 633.00 614.00 595.00 577.00 564.00 555.00 550.00 546.00 535.00 520.00 505.00 495.00 495.00 505.00 515.00 519.00 517.00 510.00 496.00 480.00 469.00 464.00 459.00 454.00 448.00 441.00 436.00 431.00 426.00 422.00 421.00 421.00 423.00 424.00 426.00 428.00 431.00 435.00 440.00 446.00 452.00 458.00 462.00 466.00 467.00 468.00 467.00 465.00 463.00 461.00 459.00 458.00 459.00 460.00 461.00 462.00 463.00 463.00 462.00 461.00 459.00 458.00 457.00 456.00 454.00 453.00 450.00 448.00 444.00 439.00 431.00 425.00 421.00 418.00 415.00 413.00 410.00 406.00 404.00 402.00 400.00 399.00 398.00 396.00 393.00 389.00 383.00 375.00 366.00 359.00 353.00 345.00 336.00 328.00 323.00 320.00 318.00 316.00 316.00 315.00 315.00 314.00 312.00 311.00 308.00 306.00 304.00 302.00 300.00 298.00 297.00 296.00 296.00 296.00 296.00 296.00 296.00 296.00 295.00 295.00 295.00 294.00 294.00 293.00 292.00 292.00 291.00 290.00 289.00 289.00 288.00 287.00 286.00 285.00 285.00 284.00 283.00 282.00 281.00 280.00 279.00 278.00 277.00 276.00 275.00 274.00 273.00 273.00 272.00 271.00 270.00 270.00 269.00 268.00 268.00 267.00 266.00 265.00 264.00 263.00 263.00 262.00 261.00 260.00 259.00 258.00 257.00 256.00 255.00 254.00 253.00 252.00 251.00 250.00 249.00 248.00 247.00 246.00 245.00 243.00 242.00 241.00 240.00 239.00 239.00 238.00 238.00 237.00 237.00
203.00 203.00 203.00 203.00 204.00 204.00 204.00 204.00 204.00 204.00 204.00 204.00 204.00 204.00 205.00 205.00 205.00 205.00 205.00 204.00 204.00 204.00 204.00 204.00 204.00 204.00 204.00 204.00 204.00 204.00 204.00 204.00 204.00 205.00 205.00 205.00 205.00 205.00 205.00 204.00 204.00 204.00 204.00 204.00 204.00 205.00 206.00 206.00 206.00 205.00 205.00 206.00 206.00 210.00 217.00 229.00 241.00 253.00 265.00 279.00 294.00 306.00 317.00 328.00 338.00 348.00 361.00 378.00 400.00 443.00 500.00 542.00 572.00 594.00 609.00 622.00 639.00 661.00 686.00 708.00 726.00 748.00 776.00 803.00 827.00 845.00 848.00 832.00 805.00 772.00 738.00 718.00 712.00 707.00 702.00 698.00 695.00 692.00 689.00 687.00 686.00 688.00 695.00 703.00 707.00 710.00 708.00 700.00 687.00 671.00 655.00 640.00 624.00 607.00 594.00 582.00 571.00 561.00 552.00 544.00 537.00 530.00 522.00 512.00 502.00 498.00 502.00 503.00 502.00 498.00 493.00 488.00 485.00 482.00 478.00 476.00 477.00 482.00 489.00 496.00 502.00 508.00 514.00 521.00 527.00 531.00 534.00 536.00 537.00 540.00 546.00 552.00 560.00 570.00 585.00 601.00 615.00 628.00 642.00 653.00 661.00 667.00 675.00 689.00 705.00 719.00 735.00 752.00 767.00 783.00 801.00 821.00 843.00 864.00 883.00 905.00 932.00 956.00 975.00 993.00 1008.00 1020.00 1033.00 1040.00 1036.00 1022.00 1001.00 979.00 961.00 947.00 932.00 919.00 908.00 895.00 883.00 871.00 856.00 840.00 827.00 816.00 804.00 788.00 770.00 752.00 735.00 718.00 701.00 685.00 670.00 656.00 641.00 623.00 603.00 585.00 568.00 553.00 543.00 536.00 530.00 517.00 502.00 489.00 482.00 486.00 496.00 505.00 507.00 502.00 489.00 473.00 461.00 454.00 452.00 451.00 449.00 444.00 438.00 432.00 426.00 422.00 418.00 418.00 418.00 419.00 420.00 423.00 425.00 429.00 433.00 439.00 445.00 451.00 456.00 459.00 462.00 462.00 462.00 460.00 457.00 455.00 453.00 452.00 452.00 453.00 455.00 457.00 458.00 458.00 458.00 457.00 456.00 455.00 454.00 454.00 453.00 452.00 450.00 448.00 445.00 441.00 435.00 428.00 420.00 414.00 409.00 407.00 405.00 403.00 400.00 398.00 396.00 394.00 392.00 391.00 389.00 387.00 383.00 377.00 367.00 357.00 348.00 340.00 333.00 325.00 319.00 315.00 313.00 312.00 311.00 312.00 312.00 312.00 311.00 310.00 308.00 307.00 304.00 302.00 300.00 298.00 297.00 296.00 295.00 294.00 294.00 293.00 293.00 293.00 293.00 293.00 292.00 292.00 292.00 291.00 291.00 290.00 289.00 289.00 288.00 287.00 286.00 285.00 285.00 284.00 283.00 283.00 282.00 281.00 280.00 279.00 278.00 277.00 276.00 275.00 274.00 273.00 272.00 272.00 271.00 270.00 269.00 269.00 268.00 267.00 267.00 266.00 265.00 264.00 264.00 263.00 262.00 261.00 260.00 259.00 259.00 258.00 257.00 256.00 255.00 254.00 253.00 252.00 251.00 250.00 249.00 248.00 247.00 246.00 245.00 244.00 243.00 241.00 240.00 240.00 239.00 238.00 238.00 237.00 237.00 236.00
203.00 203.00 203.00 203.00 203.00 203.00 204.00 204.00 204.00 204.00 204.00 204.00 204.00 204.00 205.00 205.00 206.00 205.00 205.00 204.00 204.00 204.00 204.00 204.00 204.00 204.00 204.00 204.00 204.00 204.00 204.00 204.00 204.00 205.00 205.00 205.00 205.00 205.00 205.00 205.00 204.00 204.00 204.00 204.00 204.00 205.00 206.00 206.00 206.00 206.00 206.00 206.00 208.00 211.00 218.00 228.00 240.00 253.00 265.00 279.00 294.00 307.00 318.00 328.00 338.00 349.00 363.00 381.00 404.00 449.00 507.00 548.00 577.00 598.00 611.00 626.00 644.00 666.00 690.00 712.00 731.00 753.00 781.00 805.00 824.00 837.00 832.00 811.00 783.00 749.00 716.00 701.00 695.00 691.00 686.00 682.00 679.00 676.00 672.00 670.00 669.00 672.00 681.00 692.00 698.00 699.00 696.00 687.00 673.00 657.00 643.00 629.00 613.00 599.00 585.00 574.00 564.00 555.00 546.00 538.00 531.00 525.00 519.00 510.00 498.00 491.00 494.00 498.00 497.00 492.00 484.00 477.00 473.00 471.00 470.00 473.00 479.00 486.00 493.00 499.00 506.00 512.00 518.00 524.00 529.00 534.00 537.00 538.00 540.00 543.00 548.00 554.00 562.00 574.00 589.00 605.00 619.00 633.00 648.00 660.00 668.00 676.00 684.00 696.00 709.00 723.00 739.00 756.00 771.00 787.00 807.00 827.00 850.00 871.00 891.00 915.00 940.00 959.00 977.00 994.00 1009.00 1022.00 1034.00 1039.00 1031.00 1014.00 991.00 971.00 956.00 942.00 927.00 912.00 898.00 885.00 874.00 860.00 844.00 829.00 817.00 806.00 795.00 781.00 764.00 747.00 730.00 710.00 692.00 678.00 665.00 651.00 634.00 613.00 593.00 578.00 563.00 548.00 533.00 522.00 513.00 501.00 486.00 474.00 468.00 472.00 480.00 487.00 486.00 477.00 464.00 452.00 446.00 442.00 440.00 440.00 441.00 440.00 435.00 428.00 422.00 417.00 414.00 414.00 415.00 415.00 417.00 420.00 423.00 427.00 431.00 438.00 444.00 449.00 453.00 456.00 457.00 457.00 455.00 453.00 449.00 447.00 446.00 445.00 445.00 448.00 451.00 453.00 454.00 455.00 454.00 453.00 451.00 450.00 450.00 451.00 450.00 449.00 448.00 445.00 442.00 438.00 431.00 424.00 416.00 408.00 401.00 399.00 398.00 397.00 395.00 392.00 389.00 386.00 383.00 381.00 380.00 378.00 375.00 369.00 359.00 347.00 337.00 328.00 322.00 315.00 311.00 308.00 307.00 307.00 307.00 308.00 308.00 309.00 308.00 308.00 306.00 305.00 303.00 301.00 299.00 297.00 295.00 294.00 293.00 292.00 292.00 291.00 291.00 291.00 290.00 290.00 290.00 289.00 289.00 289.00 288.00 288.00 287.00 286.00 285.00 284.00 284.00 283.00 282.00 282.00 281.00 281.00 280.00 279.00 278.00 277.00 276.00 275.00 274.00 273.00 272.00 271.00 271.00 270.00 269.00 268.00 268.00 267.00 266.00 266.00 265.00 265.00 264.00 263.00 262.00 261.00 260.00 260.00 259.00 258.00 257.00 256.00 256.00 255.00 254.00 253.00 252.00 251.00 250.00 249.00 248.00 247.00 246.00 245.00 244.00 243.00 242.00 241.00 240.00 239.00 238.00 238.00 237.00 236.00 236.00 235.00
202.00 202.00 203.00 203.00 203.00 203.00 203.00 203.00 203.00 203.00 203.00 204.00 204.00 204.00 205.00 205.00 205.00 205.00 205.00 204.00 204.00 204.00 204.00 203.00 204.00 204.00 204.00 204.00 204.00 204.00 204.00 204.00 204.00 204.00 205.00 205.00 205.00 205.00 205.00 205.00 204.00 204.00 204.00 204.00 204.00 205.00 205.00 206.00 206.00 206.00 206.00 207.00 208.00 212.00 218.00 227.00 239.00 252.00 265.00 278.00 294.00 308.00 319.00 330.00 339.00 351.00 366.00 384.00 410.00 456.00 514.00 555.00 582.00 600.00 614.00 629.00 648.00 670.00 693.00 715.00 736.00 759.00 784.00 804.00 820.00 827.00 815.00 791.00 761.00 723.00 693.00 683.00 679.00 675.00 671.00 667.00 664.00 661.00 659.00 658.00 658.00 661.00 669.00 680.00 687.00 689.00 685.00 675.00 659.00 644.00 632.00 618.00 604.00 590.00 577.00 566.00 557.00 548.00 540.00 532.00 525.00 520.00 514.00 507.00 495.00 485.00 486.00 492.00 492.00 484.00 472.00 464.00 460.00 462.00 469.00 477.00 484.00 490.00 496.00 502.00 508.00 513.00 518.00 524.00 529.00 533.00 536.00 537.00 539.00 542.00 548.00 555.00 564.00 576.00 592.00 607.00 622.00 637.00 651.00 663.00 672.00 680.00 689.00 700.00 713.00 728.00 744.00 760.00 775.00 793.00 814.00 834.00 855.00 877.00 899.00 925.00 946.00 962.00 980.00 997.00 1012.00 1026.00 1036.00 1036.00 1024.00 1002.00 980.00 964.00 952.00 939.00 924.00 908.00 893.00 877.00 862.00 845.00 828.00 813.00 798.00 786.00 776.00 763.00 748.00 733.00 718.00 696.00 677.00 664.00 655.00 645.00 627.00 604.00 585.00 569.00 557.00 546.00 529.00 510.00 498.00 487.00 473.00 461.00 454.00 455.00 463.00 466.00 461.00 452.00 443.00 436.00 432.00 431.00 430.00 431.00 433.00 435.00 433.00 427.00 420.00 414.00 410.00 411.00 411.00 412.00 414.00 417.00 420.00 424.00 429.00 436.00 442.00 446.00 449.00 451.00 452.00 452.00 449.00 445.00 442.00 439.00 438.00 437.00 439.00 443.00 447.00 450.00 451.00 451.00 450.00 448.00 446.00 445.00 446.00 447.00 448.00 447.00 445.00 442.00 438.00 433.00 426.00 419.00 410.00 400.00 392.00 390.00 390.00 389.00 388.00 385.00 381.00 377.00 373.00 370.00 367.00 365.00 363.00 357.00 347.00 335.00 325.00 318.00 312.00 308.00 305.00 303.00 302.00 303.00 304.00 305.00 306.00 306.00 306.00 305.00 304.00 303.00 301.00 299.00 297.00 295.00 294.00 292.00 291.00 290.00 289.00 289.00 288.00 288.00 288.00 287.00 287.00 287.00 287.00 286.00 286.00 285.00 284.00 284.00 283.00 282.00 281.00 281.00 280.00 280.00 279.00 278.00 278.00 277.00 276.00 275.00 274.00 273.00 272.00 271.00 270.00 270.00 269.00 268.00 267.00 266.00 266.00 265.00 265.00 264.00 264.00 263.00 262.00 261.00 261.00 260.00 259.00 258.00 257.00 257.00 256.00 255.00 254.00 254.00 253.00 252.00 251.00 250.00 249.00 248.00 247.00 247.00 246.00 244.00 243.00 242.00 241.00 240.00 239.00 238.00 238.00 237.00 236.00 236.00 235.00 235.00
202.00 202.00 202.00 203.00 203.00 203.00 203.00 203.00 203.00 203.00 203.00 203.00 204.00 204.00 204.00 205.00 205.00 205.00 205.00 204.00 204.00 204.00 204.00 203.00 204.00 204.00 204.00 204.00 204.00 204.00 204.00 204.00 204.00 204.00 204.00 205.00 205.00 205.00 205.00 205.00 205.00 204.00 204.00 205.00 205.00 205.00 205.00 205.00 205.00 205.00 205.00 206.00 209.00 213.00 218.00 225.00 236.00 251.00 264.00 278.00 294.00 309.00 321.00 333.00 345.00 357.00 372.00 390.00 415.00 463.00 523.00 563.00 587.00 603.00 616.00 631.00 651.00 674.00 697.00 719.00 741.00 763.00 784.00 802.00 815.00 814.00 797.00 770.00 737.00 697.00 672.00 666.00 662.00 658.00 655.00 652.00 650.00 648.00 647.00 646.00 647.00 651.00 659.00 670.00 677.00 679.00 675.00 663.00 646.00 633.00 621.00 608.00 594.00 580.00 569.00 559.00 550.00 541.00 532.00 525.00 519.00 514.00 508.00 502.00 492.00 480.00 477.00 485.00 486.00 474.00 460.00 452.00 453.00 461.00 473.00 482.00 489.00 494.00 498.00 502.00 507.00 512.00 517.00 522.00 527.00 531.00 533.00 535.00 537.00 541.00 547.00 555.00 565.00 577.00 593.00 608.00 623.00 638.00 653.00 664.00 674.00 683.00 693.00 704.00 717.00 732.00 748.00 763.00 779.00 799.00 821.00 840.00 861.00 886.00 910.00 932.00 950.00 966.00 984.00 1002.00 1018.00 1031.00 1038.00 1032.00 1012.00 988.00 969.00 957.00 947.00 935.00 921.00 906.00 891.00 873.00 856.00 836.00 817.00 796.00 775.00 759.00 749.00 737.00 720.00 706.00 695.00 675.00 654.00 639.00 633.00 630.00 616.00 594.00 573.00 556.00 544.00 536.00 523.00 503.00 486.00 473.00 461.00 449.00 441.00 440.00 446.00 448.00 441.00 433.00 427.00 423.00 422.00 422.00 423.00 423.00 425.00 428.00 430.00 427.00 420.00 411.00 406.00 406.00 408.00 409.00 411.00 414.00 417.00 421.00 426.00 433.00 439.00 442.00 445.00 446.00 447.00 446.00 442.00 437.00 434.00 431.00 430.00 430.00 433.00 438.00 443.00 446.00 448.00 448.00 446.00 443.00 441.00 440.00 441.00 443.00 445.00 444.00 442.00 438.00 434.00 428.00 421.00 412.00 402.00 391.00 382.00 381.00 381.00 381.00 380.00 377.00 372.00 367.00 361.00 356.00 352.00 348.00 345.00 340.00 332.00 323.00 316.00 310.00 305.00 302.00 300.00 299.00 298.00 299.00 300.00 302.00 303.00 303.00 303.00 303.00 302.00 300.00 299.00 297.00 295.00 293.00 292.00 290.00 289.00 288.00 287.00 287.00 286.00 286.00 285.00 285.00 284.00 284.00 284.00 284.00 284.00 283.00 282.00 281.00 280.00 280.00 279.00 278.00 278.00 277.00 277.00 276.00 275.00 274.00 273.00 272.00 272.00 271.00 270.00 269.00 268.00 268.00 267.00 266.00 266.00 265.00 264.00 263.00 263.00 262.00 262.00 261.00 261.00 260.00 259.00 258.00 257.00 257.00 256.00 255.00 254.00 254.00 253.00 252.00 251.00 251.00 250.00 249.00 248.00 247.00 246.00 246.00 245.00 244.00 243.00 241.00 240.00 240.00 239.00 238.00 237.00 237.00 236.00 235.00 235.00 234.00
202.00 202.00 202.00 202.00 202.00 202.00 203.00 203.00 203.00 203.00 203.00 203.00 203.00 204.00 204.00 204.00 204.00 204.00 204.00 204.00 204.00 204.00 203.00 203.00 203.00 204.00 204.00 204.00 204.00 204.00 204.00 204.00 204.00 204.00 204.00 205.00 205.00 205.00 205.00 205.00 205.00 205.00 205.00 205.00 205.00 205.00 205.00 205.00 205.00 205.00 205.00 206.00 208.00 212.00 218.00 224.00 235.00 249.00 263.00 277.00 294.00 309.00 324.00 338.00 353.00 367.00 380.00 396.00 419.00 469.00 531.00 571.00 592.00 606.00 619.00 634.00 653.00 676.00 700.00 723.00 747.00 766.00 782.00 798.00 807.00 800.00 778.00 749.00 714.00 675.00 654.00 650.00 646.00 643.00 640.00 639.00 637.00 636.00 634.00 634.00 635.00 641.00 651.00 662.00 669.00 670.00 664.00 651.00 636.00 623.00 612.00 598.00 583.00 571.00 560.00 551.00 541.00 533.00 526.00 519.00 513.00 507.00 502.00 497.00 489.00 477.00 470.00 475.00 478.00 466.00 450.00 444.00 450.00 460.00 472.00 482.00 490.00 494.00 497.00 500.00 504.00 509.00 514.00 519.00 524.00 527.00 530.00 532.00 535.00 539.00 545.00 554.00 564.00 577.00 593.00 608.00 623.00 638.00 653.00 663.00 672.00 682.00 692.00 703.00 716.00 732.00 748.00 765.00 784.00 806.00 828.00 850.00 874.00 901.00 923.00 940.00 955.00 972.00 991.00 1010.00 1026.00 1036.00 1037.00 1021.00 997.00 976.00 962.00 951.00 940.00 929.00 916.00 902.00 889.00 874.00 856.00 837.00 816.00 790.00 761.00 738.00 723.00 710.00 692.00 678.00 664.00 645.00 627.00 612.00 606.00 606.00 599.00 582.00 562.00 544.00 528.00 520.00 512.00 498.00 480.00 464.00 450.00 438.00 429.00 426.00 429.00 429.00 425.00 420.00 417.00 415.00 415.00 416.00 416.00 417.00 418.00 421.00 424.00 424.00 416.00 407.00 402.00 403.00 405.00 406.00 408.00 411.00 413.00 417.00 422.00 428.00 433.00 437.00 439.00 441.00 440.00 438.00 434.00 429.00 425.00 423.00 422.00 423.00 428.00 433.00 439.00 443.00 445.00 444.00 441.00 437.00 434.00 433.00 434.00 438.00 441.00 441.00 438.00 434.00 429.00 423.00 415.00 405.00 393.00 381.00 373.00 371.00 370.00 370.00 370.00 367.00 361.00 354.00 347.00 341.00 335.00 330.00 326.00 323.00 318.00 313.00 308.00 303.00 300.00 297.00 296.00 295.00 295.00 296.00 298.00 299.00 300.00 301.00 301.00 300.00 299.00 298.00 297.00 295.00 293.00 292.00 290.00 288.00 287.00 286.00 285.00 284.00 284.00 283.00 283.00 282.00 282.00 282.00 282.00 282.00 281.00 281.00 280.00 279.00 278.00 277.00 277.00 276.00 276.00 275.00 274.00 274.00 273.00 272.00 271.00 270.00 269.00 268.00 268.00 267.00 266.00 266.00 265.00 265.00 264.00 263.00 262.00 262.00 261.00 261.00 260.00 260.00 259.00 258.00 258.00 257.00 256.00 255.00 255.00 254.00 253.00 252.00 252.00 251.00 250.00 249.00 249.00 248.00 247.00 246.00 245.00 244.00 244.00 243.00 242.00 241.00 240.00 239.00 238.00 237.00 237.00 236.00 235.00 235.00 234.00 234.00
202.00 202.00 202.00 202.00 202.00 202.00 202.00 202.00 202.00 203.00 203.00 203.00 203.00 203.00 203.00 204.00 204.00 204.00 204.00 204.00 203.00 203.00 203.00 203.00 203.00 204.00 204.00 204.00 204.00 204.00 204.00 204.00 204.00 204.00 204.00 205.00 205.00 205.00 205.00 205.00 205.00 205.00 205.00 205.00 205.00 205.00 205.00 205.00 205.00 205.00 205.00 206.00 209.00 212.00 217.00 224.00 234.00 247.00 261.00 277.00 294.00 310.00 325.00 342.00 359.00 374.00 386.00 401.00 421.00 472.00 538.00 578.00 596.00 609.00 622.00 636.00 655.00 679.00 703.00 727.00 751.00 769.00 781.00 790.00 793.00 780.00 756.00 727.00 690.00 656.00 639.00 634.00 630.00 628.00 627.00 626.00 625.00 624.00 622.00 621.00 624.00 633.00 644.00 655.00 662.00 662.00 654.00 641.00 628.00 615.00 601.00 585.00 572.00 561.00 552.00 542.00 534.00 526.00 519.00 513.00 507.00 501.00 497.00 492.00 486.00 475.00 465.00 465.00 468.00 458.00 444.00 438.00 442.00 452.00 464.00 476.00 485.00 492.00 495.00 497.00 500.00 505.00 511.00 516.00 519.00 522.00 525.00 528.00 532.00 537.00 544.00 553.00 564.00 576.00 592.00 608.00 622.00 637.00 649.00 657.00 666.00 676.00 687.00 698.00 712.00 730.00 749.00 769.00 789.00 812.00 837.00 865.00 891.00 916.00 935.00 950.00 963.00 981.00 1001.00 1021.00 1034.00 1039.00 1031.00 1009.00 985.00 967.00 954.00 943.00 931.00 920.00 907.00 894.00 882.00 871.00 856.00 837.00 819.00 794.00 763.00 734.00 710.00 688.00 667.00 653.00 636.00 616.00 602.00 590.00 581.00 577.00 574.00 567.00 554.00 535.00 518.00 505.00 498.00 491.00 478.00 462.00 446.00 433.00 423.00 417.00 416.00 415.00 413.00 411.00 410.00 410.00 410.00 410.00 411.00 412.00 413.00 414.00 416.00 417.00 412.00 403.00 400.00 401.00 402.00 403.00 404.00 406.00 409.00 413.00 418.00 423.00 428.00 431.00 433.00 433.00 432.00 429.00 425.00 420.00 416.00 414.00 414.00 418.00 423.00 429.00 434.00 439.00 441.00 439.00 435.00 430.00 426.00 424.00 425.00 429.00 432.00 434.00 433.00 430.00 425.00 417.00 408.00 397.00 383.00 370.00 361.00 358.00 358.00 357.00 356.00 353.00 346.00 338.00 330.00 325.00 320.00 315.00 311.00 309.00 307.00 304.00 301.00 298.00 295.00 294.00 293.00 293.00 293.00 294.00 295.00 296.00 297.00 298.00 298.00 297.00 297.00 296.00 294.00 293.00 291.00 290.00 288.00 286.00 285.00 284.00 283.00 282.00 281.00 281.00 280.00 280.00 279.00 279.00 279.00 279.00 279.00 278.00 277.00 277.00 276.00 275.00 274.00 274.00 273.00 273.00 272.00 271.00 271.00 270.00 269.00 268.00 267.00 266.00 266.00 265.00 265.00 264.00 264.00 263.00 262.00 261.00 261.00 260.00 260.00 259.00 259.00 258.00 257.00 257.00 256.00 255.00 255.00 254.00 253.00 252.00 252.00 251.00 250.00 250.00 249.00 248.00 247.00 247.00 246.00 245.00 244.00 243.00 243.00 242.00 241.00 240.00 239.00 238.00 238.00 237.00 236.00 236.00 235.00 234.00 234.00 233.00
201.00 201.00 201.00 202.00 202.00 202.00 202.00 202.00 202.00 202.00 202.00 202.00 203.00 203.00 203.00 203.00 203.00 203.00 203.00 203.00 203.00 203.00 203.00 203.00 203.00 204.00 204.00 204.00 204.00 204.00 204.00 205.00 205.00 205.00 205.00 205.00 205.00 205.00 205.00 205.00 205.00 205.00 205.00 205.00 205.00 205.00 205.00 205.00 205.00 206.00 206.00 207.00 209.00 211.00 214.00 221.00 231.00 245.00 260.00 276.00 292.00 309.00 324.00 342.00 360.00 376.00 389.00 402.00 422.00 471.00 539.00 582.00 598.00 611.00 624.00 637.00 658.00 682.00 706.00 732.00 756.00 770.00 777.00 780.00 774.00 758.00 734.00 703.00 667.00 639.00 626.00 619.00 616.00 616.00 615.00 614.00 613.00 612.00 610.00 609.00 614.00 626.00 638.00 648.00 655.00 654.00 645.00 633.00 620.00 606.00 589.00 573.00 562.00 553.00 543.00 535.00 527.00 519.00 512.00 507.00 502.00 496.00 492.00 488.00 482.00 473.00 462.00 457.00 456.00 451.00 440.00 434.00 435.00 443.00 455.00 468.00 479.00 487.00 492.00 494.00 497.00 501.00 507.00 512.00 515.00 518.00 521.00 525.00 529.00 535.00 543.00 552.00 562.00 575.00 591.00 607.00 619.00 630.00 640.00 648.00 658.00 669.00 681.00 695.00 711.00 730.00 752.00 772.00 794.00 818.00 848.00 879.00 906.00 930.00 948.00 960.00 973.00 993.00 1014.00 1031.00 1039.00 1037.00 1020.00 995.00 975.00 959.00 946.00 933.00 920.00 908.00 895.00 882.00 871.00 857.00 842.00 825.00 809.00 788.00 760.00 731.00 702.00 674.00 646.00 630.00 614.00 594.00 580.00 571.00 560.00 552.00 549.00 546.00 541.00 528.00 509.00 494.00 484.00 480.00 477.00 470.00 455.00 438.00 423.00 413.00 407.00 406.00 405.00 404.00 404.00 404.00 404.00 406.00 407.00 407.00 408.00 408.00 410.00 411.00 408.00 401.00 397.00 399.00 400.00 399.00 400.00 402.00 404.00 408.00 413.00 418.00 422.00 425.00 426.00 426.00 424.00 420.00 416.00 412.00 408.00 406.00 407.00 412.00 418.00 425.00 430.00 434.00 435.00 432.00 427.00 421.00 416.00 414.00 414.00 417.00 421.00 425.00 427.00 426.00 421.00 412.00 402.00 390.00 377.00 363.00 351.00 345.00 344.00 343.00 341.00 337.00 329.00 322.00 316.00 312.00 307.00 303.00 300.00 299.00 298.00 296.00 294.00 293.00 292.00 291.00 290.00 290.00 291.00 292.00 292.00 294.00 294.00 295.00 295.00 295.00 294.00 293.00 292.00 290.00 289.00 287.00 286.00 284.00 283.00 282.00 281.00 280.00 279.00 278.00 278.00 277.00 277.00 277.00 277.00 276.00 276.00 276.00 275.00 274.00 274.00 273.00 272.00 272.00 271.00 270.00 270.00 269.00 268.00 267.00 267.00 266.00 265.00 264.00 263.00 263.00 263.00 262.00 262.00 261.00 261.00 260.00 259.00 259.00 258.00 258.00 257.00 257.00 256.00 255.00 254.00 254.00 253.00 252.00 252.00 251.00 250.00 250.00 249.00 248.00 248.00 247.00 246.00 245.00 245.00 244.00 243.00 242.00 242.00 241.00 240.00 239.00 238.00 238.00 237.00 236.00 236.00 235.00 234.00 234.00 233.00 233.00
201.00 201.00 201.00 201.00 201.00 202.00 202.00 202.00 202.00 202.00 202.00 202.00 202.00 202.00 203.00 203.00 203.00 203.00 203.00 203.00 203.00 203.00 203.00 203.00 203.00 204.00 204.00 204.00 204.00 204.00 204.00 205.00 205.00 205.00 205.00 205.00 205.00 205.00 205.00 205.00 205.00 205.00 205.00 205.00 205.00 205.00 205.00 206.00 206.00 206.00 207.00 208.00 209.00 210.00 211.00 217.00 228.00 242.00 258.00 274.00 290.00 307.00 323.00 340.00 358.00 375.00 388.00 401.00 420.00 463.00 531.00 581.00 599.00 611.00 624.00 637.00 657.00 685.00 711.00 736.00 757.00 767.00 771.00 768.00 757.00 737.00 709.00 674.00 639.00 620.00 611.00 604.00 601.00 602.00 602.00 602.00 601.00 599.00 597.00 598.00 606.00 620.00 632.00 642.00 648.00 646.00 638.00 626.00 613.00 597.00 579.00 563.00 552.00 544.00 536.00 528.00 520.00 513.00 507.00 501.00 496.00 491.00 487.00 483.00 477.00 468.00 458.00 451.00 447.00 443.00 435.00 430.00 431.00 438.00 450.00 464.00 476.00 484.00 488.00 491.00 494.00 497.00 502.00 507.00 512.00 515.00 518.00 521.00 526.00 533.00 541.00 550.00 560.00 572.00 589.00 604.00 615.00 624.00 635.00 645.00 656.00 666.00 678.00 694.00 711.00 732.00 755.00 776.00 799.00 826.00 859.00 892.00 920.00 943.00 959.00 970.00 986.00 1006.00 1024.00 1036.00 1039.00 1028.00 1006.00 985.00 967.00 952.00 937.00 923.00 910.00 896.00 883.00 870.00 856.00 838.00 819.00 800.00 781.00 764.00 745.00 719.00 691.00 662.00 632.00 610.00 596.00 580.00 564.00 554.00 545.00 534.00 529.00 525.00 524.00 517.00 500.00 483.00 471.00 467.00 473.00 476.00 465.00 445.00 426.00 411.00 403.00 400.00 399.00 399.00 399.00 399.00 400.00 402.00 403.00 403.00 403.00 403.00 403.00 405.00 404.00 400.00 394.00 394.00 395.00 395.00 396.00 397.00 399.00 403.00 408.00 413.00 417.00 419.00 419.00 418.00 415.00 411.00 407.00 403.00 400.00 398.00 401.00 407.00 414.00 421.00 426.00 429.00 429.00 425.00 420.00 413.00 407.00 403.00 403.00 405.00 410.00 416.00 420.00 420.00 415.00 408.00 398.00 386.00 373.00 360.00 346.00 336.00 330.00 327.00 324.00 319.00 314.00 309.00 305.00 302.00 298.00 294.00 292.00 291.00 290.00 289.00 289.00 288.00 288.00 288.00 288.00 288.00 289.00 289.00 290.00 291.00 291.00 292.00 292.00 292.00 291.00 290.00 289.00 288.00 286.00 285.00 283.00 282.00 281.00 279.00 278.00 277.00 277.00 276.00 275.00 275.00 275.00 274.00 274.00 274.00 274.00 273.00 273.00 272.00 271.00 271.00 270.00 269.00 269.00 268.00 267.00 267.00 266.00 265.00 264.00 264.00 263.00 262.00 261.00 261.00 261.00 261.00 260.00 260.00 259.00 258.00 258.00 257.00 257.00 256.00 255.00 255.00 254.00 254.00 253.00 252.00 252.00 251.00 250.00 250.00 249.00 248.00 248.00 247.00 246.00 246.00 245.00 244.00 243.00 243.00 242.00 241.00 240.00 240.00 239.00 239.00 238.00 237.00 236.00 236.00 235.00 234.00 234.00 233.00 233.00 232.00
201.00 201.00 201.00 201.00 201.00 201.00 202.00 202.00 202.00 202.00 202.00 202.00 202.00 202.00 202.00 202.00 203.00 203.00 203.00 203.00 203.00 203.00 203.00 203.00 204.00 204.00 204.00 204.00 204.00 204.00 204.00 204.00 204.00 204.00 205.00 205.00 205.00 205.00 205.00 205.00 205.00 204.00 204.00 204.00 204.00 205.00 205.00 206.00 206.00 207.00 208.00 208.00 209.00 209.00 210.00 214.00 224.00 239.00 254.00 270.00 287.00 303.00 319.00 336.00 354.00 370.00 383.00 395.00 413.00 455.00 526.00 580.00 598.00 609.00 623.00 636.00 654.00 682.00 712.00 738.00 753.00 761.00 763.00 757.00 742.00 716.00 680.00 640.00 611.00 598.00 594.00 587.00 584.00 586.00 589.00 590.00 590.00 588.00 587.00 590.00 599.00 612.00 626.00 636.00 642.00 640.00 632.00 621.00 607.00 590.00 571.00 555.00 544.00 536.00 529.00 522.00 515.00 507.00 500.00 495.00 491.00 487.00 483.00 479.00 472.00 463.00 453.00 444.00 438.00 433.00 427.00 423.00 426.00 434.00 447.00 460.00 471.00 480.00 485.00 488.00 491.00 494.00 499.00 504.00 508.00 511.00 515.00 519.00 524.00 530.00 538.00 548.00 557.00 568.00 582.00 598.00 612.00 624.00 637.00 650.00 660.00 670.00 682.00 698.00 715.00 736.00 759.00 781.00 805.00 837.00 874.00 906.00 934.00 955.00 968.00 979.00 997.00 1015.00 1030.00 1037.00 1032.00 1014.00 994.00 976.00 960.00 945.00 929.00 914.00 899.00 885.00 872.00 860.00 841.00 819.00 795.00 769.00 748.00 734.00 727.00 714.00 685.00 654.00 625.00 601.00 584.00 568.00 549.00 538.00 531.00 520.00 510.00 504.00 504.00 500.00 489.00 474.00 461.00 455.00 460.00 467.00 462.00 444.00 425.00 409.00 398.00 395.00 395.00 395.00 396.00 396.00 396.00 398.00 399.00 399.00 397.00 396.00 396.00 398.00 399.00 397.00 391.00 389.00 390.00 391.00 391.00 393.00 395.00 398.00 404.00 409.00 412.00 413.00 413.00 410.00 407.00 403.00 399.00 396.00 393.00 393.00 396.00 403.00 411.00 417.00 421.00 423.00 422.00 418.00 413.00 406.00 399.00 395.00 394.00 395.00 399.00 405.00 410.00 412.00 408.00 401.00 392.00 382.00 371.00 359.00 346.00 333.00 322.00 314.00 308.00 303.00 299.00 298.00 297.00 295.00 291.00 286.00 284.00 283.00 282.00 282.00 283.00 284.00 285.00 286.00 286.00 286.00 287.00 287.00 288.00 288.00 289.00 289.00 289.00 289.00 289.00 288.00 287.00 285.00 284.00 282.00 281.00 279.00 278.00 277.00 276.00 275.00 274.00 274.00 273.00 273.00 272.00 272.00 272.00 272.00 271.00 271.00 270.00 270.00 269.00 268.00 268.00 267.00 267.00 266.00 265.00 264.00 264.00 263.00 262.00 261.00 261.00 260.00 260.00 259.00 259.00 259.00 259.00 258.00 258.00 257.00 256.00 256.00 255.00 255.00 254.00 253.00 253.00 252.00 251.00 251.00 250.00 249.00 249.00 248.00 248.00 247.00 247.00 246.00 245.00 245.00 244.00 243.00 242.00 241.00 241.00 240.00 240.00 239.00 238.00 238.00 237.00 237.00 236.00 235.00 235.00 234.00 233.00 233.00 232.00 232.00
201.00 201.00 201.00 201.00 201.00 201.00 202.00 202.00 202.00 202.00 202.00 202.00 202.00 202.00 202.00 202.00 203.00 203.00 203.00 203.00 203.00 203.00 203.00 204.00 204.00 204.00 204.00 204.00 204.00 204.00 204.00 204.00 204.00 204.00 204.00 205.00 205.00 205.00 205.00 205.00 205.00 204.00 204.00 204.00 204.00 205.00 205.00 206.00 207.00 208.00 208.00 208.00 209.00 209.00 209.00 212.00 219.00 233.00 249.00 266.00 283.00 299.00 314.00 330.00 346.00 360.00 372.00 385.00 403.00 446.00 522.00 578.00 595.00 606.00 620.00 633.00 651.00 677.00 706.00 731.00 745.00 752.00 753.00 747.00 728.00 693.00 649.00 610.00 586.00 577.00 573.00 567.00 565.00 569.00 575.00 579.00 578.00 576.00 575.00 581.00 593.00 606.00 619.00 630.00 636.00 634.00 627.00 617.00 602.00 585.00 566.00 549.00 537.00 529.00 522.00 516.00 508.00 501.00 495.00 490.00 486.00 483.00 479.00 474.00 467.00 458.00 448.00 437.00 428.00 422.00 416.00 416.00 424.00 434.00 445.00 456.00 467.00 476.00 483.00 486.00 489.00 492.00 496.00 500.00 505.00 508.00 512.00 516.00 522.00 528.00 535.00 543.00 551.00 561.00 576.00 593.00 612.00 628.00 643.00 656.00 665.00 676.00 690.00 705.00 720.00 741.00 763.00 786.00 814.00 850.00 887.00 918.00 945.00 963.00 976.00 990.00 1006.00 1022.00 1032.00 1031.00 1018.00 1000.00 984.00 970.00 955.00 939.00 923.00 906.00 890.00 875.00 861.00 845.00 825.00 798.00 766.00 736.00 716.00 702.00 700.00 702.00 684.00 653.00 629.00 607.00 585.00 562.00 537.00 522.00 514.00 505.00 494.00 486.00 486.00 484.00 479.00 470.00 456.00 445.00 445.00 452.00 450.00 437.00 420.00 405.00 394.00 391.00 391.00 392.00 392.00 392.00 392.00 393.00 393.00 392.00 390.00 389.00 388.00 389.00 391.00 390.00 385.00 384.00 385.00 387.00 388.00 389.00 392.00 396.00 401.00 406.00 408.00 407.00 406.00 403.00 400.00 397.00 393.00 390.00 388.00 388.00 392.00 399.00 407.00 414.00 417.00 418.00 416.00 412.00 406.00 399.00 393.00 388.00 385.00 386.00 389.00 394.00 398.00 399.00 397.00 391.00 383.00 376.00 367.00 357.00 345.00 333.00 321.00 307.00 295.00 289.00 286.00 288.00 290.00 289.00 284.00 280.00 278.00 277.00 276.00 277.00 278.00 279.00 281.00 283.00 284.00 284.00 285.00 285.00 286.00 286.00 286.00 286.00 286.00 286.00 286.00 285.00 284.00 283.00 281.00 280.00 278.00 277.00 276.00 274.00 273.00 273.00 272.00 271.00 271.00 271.00 270.00 270.00 270.00 269.00 269.00 268.00 268.00 267.00 267.00 266.00 266.00 265.00 264.00 264.00 263.00 262.00 262.00 261.00 260.00 260.00 259.00 258.00 258.00 258.00 258.00 257.00 257.00 257.00 256.00 256.00 255.00 254.00 254.00 253.00 252.00 252.00 251.00 250.00 250.00 249.00 248.00 248.00 247.00 247.00 246.00 246.00 245.00 245.00 244.00 244.00 243.00 242.00 241.00 241.00 240.00 239.00 239.00 238.00 238.00 237.00 237.00 236.00 235.00 235.00 234.00 233.00 233.00 232.00 231.00 231.00
202.00 202.00 202.00 202.00 202.00 202.00 202.00 202.00 202.00 202.00 202.00 202.00 202.00 202.00 202.00 203.00 203.00 203.00 203.00 203.00 203.00 203.00 204.00 204.00 204.00 204.00 204.00 204.00 203.00 203.00 203.00 203.00 203.00 204.00 204.00 205.00 205.00 205.00 205.00 205.00 205.00 204.00 204.00 204.00 204.00 205.00 206.00 206.00 207.00 208.00 208.00 208.00 209.00 209.00 209.00 210.00 216.00 228.00 243.00 260.00 277.00 292.00 307.00 323.00 337.00 350.00 362.00 375.00 391.00 434.00 513.00 569.00 588.00 601.00 616.00 631.00 648.00 670.00 694.00 716.00 732.00 740.00 741.00 734.00 711.00 668.00 622.00 585.00 565.00 558.00 553.00 548.00 547.00 551.00 558.00 564.00 565.00 562.00 563.00 573.00 586.00 599.00 613.00 625.00 630.00 629.00 623.00 613.00 598.00 580.00 561.00 544.00 531.00 522.00 515.00 509.00 502.00 497.00 491.00 486.00 482.00 479.00 475.00 470.00 463.00 454.00 443.00 430.00 418.00 410.00 405.00 411.00 424.00 435.00 446.00 456.00 466.00 475.00 482.00 485.00 487.00 490.00 494.00 498.00 502.00 505.00 508.00 513.00 518.00 525.00 532.00 539.00 547.00 560.00 578.00 598.00 617.00 635.00 650.00 661.00 671.00 683.00 697.00 710.00 725.00 746.00 768.00 792.00 826.00 865.00 899.00 928.00 953.00 972.00 986.00 1000.00 1015.00 1027.00 1028.00 1018.00 1003.00 988.00 976.00 965.00 951.00 934.00 917.00 900.00 881.00 864.00 846.00 828.00 807.00 775.00 737.00 708.00 689.00 675.00 668.00 671.00 667.00 644.00 623.00 605.00 584.00 561.00 537.00 517.00 499.00 486.00 480.00 472.00 470.00 469.00 468.00 464.00 450.00 435.00 431.00 434.00 433.00 424.00 413.00 401.00 391.00 386.00 386.00 387.00 387.00 387.00 387.00 387.00 386.00 385.00 383.00 382.00 381.00 381.00 381.00 380.00 378.00 378.00 381.00 383.00 384.00 386.00 389.00 393.00 398.00 402.00 403.00 402.00 400.00 397.00 394.00 391.00 388.00 386.00 384.00 383.00 388.00 396.00 404.00 410.00 413.00 414.00 411.00 406.00 400.00 393.00 386.00 381.00 377.00 377.00 379.00 380.00 380.00 380.00 380.00 378.00 373.00 367.00 361.00 353.00 344.00 333.00 319.00 301.00 286.00 279.00 278.00 280.00 283.00 282.00 279.00 276.00 274.00 272.00 272.00 273.00 274.00 276.00 277.00 279.00 281.00 282.00 282.00 283.00 283.00 283.00 284.00 284.00 284.00 283.00 283.00 282.00 281.00 280.00 278.00 277.00 275.00 274.00 273.00 272.00 271.00 270.00 270.00 269.00 269.00 268.00 268.00 268.00 268.00 267.00 267.00 266.00 266.00 265.00 265.00 264.00 264.00 263.00 262.00 262.00 261.00 260.00 260.00 259.00 258.00 258.00 257.00 257.00 256.00 256.00 256.00 256.00 255.00 255.00 255.00 254.00 254.00 253.00 252.00 252.00 251.00 250.00 250.00 249.00 248.00 248.00 247.00 246.00 246.00 245.00 245.00 244.00 244.00 244.00 243.00 243.00 242.00 241.00 240.00 240.00 239.00 238.00 238.00 238.00 237.00 237.00 236.00 235.00 235.00 234.00 233.00 233.00 232.00 231.00 231.00 230.00
202.00 202.00 202.00 202.00 202.00 202.00 202.00 202.00 202.00 202.00 202.00 202.00 202.00 202.00 203.00 203.00 203.00 203.00 203.00 203.00 203.00 203.00 204.00 204.00 204.00 204.00 204.00 204.00 203.00 203.00 202.00 202.00 203.00 203.00 204.00 204.00 205.00 205.00 205.00 205.00 205.00 204.00 204.00 204.00 204.00 205.00 206.00 206.00 207.00 207.00 208.00 208.00 209.00 209.00 209.00 210.00 213.00 223.00 237.00 253.00 269.00 284.00 298.00 314.00 328.00 341.00 354.00 367.00 379.00 405.00 479.00 547.00 576.00 594.00 611.00 627.00 642.00 659.00 679.00 699.00 716.00 724.00 725.00 717.00 690.00 646.00 599.00 561.00 543.00 539.00 536.00 530.00 528.00 532.00 540.00 547.00 550.00 546.00 551.00 564.00 579.00 593.00 607.00 618.00 624.00 622.00 617.00 607.00 592.00 574.00 557.00 540.00 525.00 515.00 508.00 502.00 496.00 492.00 486.00 481.00 478.00 474.00 470.00 465.00 460.00 452.00 440.00 426.00 412.00 402.00 400.00 411.00 425.00 438.00 450.00 459.00 468.00 476.00 481.00 484.00 486.00 488.00 492.00 496.00 499.00 503.00 507.00 513.00 519.00 525.00 532.00 540.00 551.00 566.00 585.00 605.00 624.00 642.00 655.00 666.00 676.00 688.00 702.00 715.00 731.00 751.00 774.00 801.00 839.00 878.00 909.00 937.00 961.00 980.00 994.00 1008.00 1020.00 1024.00 1017.00 1004.00 989.00 977.00 968.00 958.00 946.00 928.00 912.00 894.00 873.00 852.00 832.00 813.00 792.00 758.00 718.00 691.00 674.00 658.00 645.00 638.00 635.00 624.00 605.00 586.00 567.00 549.00 535.00 517.00 493.00 472.00 463.00 457.00 454.00 454.00 453.00 449.00 437.00 424.00 418.00 418.00 418.00 415.00 408.00 399.00 389.00 383.00 381.00 381.00 381.00 381.00 380.00 380.00 379.00 377.00 376.00 375.00 374.00 373.00 372.00 371.00 371.00 373.00 376.00 379.00 381.00 383.00 386.00 390.00 394.00 397.00 398.00 396.00 394.00 392.00 389.00 386.00 384.00 381.00 379.00 378.00 383.00 390.00 398.00 405.00 409.00 409.00 406.00 401.00 395.00 388.00 381.00 374.00 369.00 367.00 367.00 365.00 361.00 359.00 360.00 361.00 360.00 356.00 352.00 346.00 339.00 329.00 315.00 297.00 281.00 273.00 272.00 274.00 276.00 276.00 274.00 272.00 270.00 269.00 269.00 270.00 271.00 273.00 274.00 276.00 277.00 279.00 279.00 280.00 280.00 281.00 281.00 281.00 281.00 281.00 280.00 280.00 279.00 277.00 276.00 274.00 272.00 271.00 270.00 269.00 269.00 268.00 268.00 267.00 267.00 266.00 266.00 266.00 265.00 265.00 265.00 264.00 264.00 263.00 262.00 262.00 261.00 261.00 260.00 260.00 259.00 258.00 258.00 257.00 257.00 256.00 256.00 255.00 255.00 255.00 255.00 254.00 254.00 254.00 253.00 253.00 252.00 252.00 251.00 250.00 250.00 249.00 248.00 247.00 247.00 246.00 245.00 245.00 244.00 244.00 244.00 243.00 243.00 242.00 242.00 242.00 241.00 240.00 240.00 239.00 238.00 238.00 237.00 237.00 236.00 236.00 235.00 235.00 234.00 234.00 233.00 232.00 232.00 231.00 230.00 230.00
203.00 203.00 203.00 203.00 202.00 202.00 202.00 202.00 202.00 202.00 203.00 203.00 203.00 203.00 203.00 203.00 203.00 203.00 203.00 203.00 203.00 203.00 204.00 204.00 204.00 205.00 205.00 204.00 204.00 203.00 202.00 202.00 202.00 203.00 203.00 204.00 204.00 205.00 205.00 205.00 205.00 205.00 205.00 204.00 205.00 205.00 206.00 206.00 206.00 207.00 208.00 208.00 208.00 209.00 209.00 209.00 211.00 219.00 232.00 246.00 260.00 275.00 290.00 304.00 318.00 331.00 344.00 356.00 366.00 378.00 426.00 503.00 558.00 587.00 607.00 621.00 634.00 647.00 664.00 683.00 699.00 706.00 707.00 696.00 669.00 628.00 579.00 539.00 523.00 521.00 518.00 512.00 511.00 516.00 524.00 531.00 535.00 532.00 539.00 554.00 571.00 586.00 600.00 610.00 614.00 612.00 608.00 599.00 584.00 567.00 550.00 533.00 519.00 509.00 501.00 496.00 491.00 487.00 482.00 477.00 473.00 469.00 464.00 460.00 455.00 447.00 435.00 421.00 406.00 395.00 397.00 411.00 426.00 439.00 451.00 459.00 466.00 473.00 479.00 482.00 483.00 486.00 489.00 493.00 496.00 501.00 507.00 515.00 521.00 528.00 536.00 545.00 558.00 573.00 592.00 612.00 630.00 646.00 659.00 669.00 680.00 693.00 706.00 720.00 736.00 756.00 780.00 812.00 854.00 889.00 917.00 944.00 967.00 986.00 1000.00 1012.00 1019.00 1015.00 1004.00 990.00 977.00 966.00 956.00 947.00 937.00 924.00 908.00 889.00 868.00 846.00 824.00 801.00 778.00 748.00 714.00 688.00 669.00 650.00 632.00 617.00 607.00 600.00 589.00 571.00 551.00 533.00 521.00 507.00 491.00 470.00 454.00 443.00 437.00 437.00 437.00 434.00 424.00 415.00 410.00 409.00 409.00 408.00 404.00 396.00 387.00 380.00 376.00 375.00 375.00 375.00 374.00 372.00 371.00 370.00 369.00 367.00 366.00 365.00 365.00 365.00 367.00 369.00 373.00 375.00 378.00 380.00 383.00 387.00 390.00 393.00 393.00 392.00 390.00 388.00 385.00 382.00 379.00 377.00 374.00 373.00 378.00 385.00 392.00 399.00 405.00 405.00 402.00 397.00 390.00 383.00 375.00 368.00 361.00 356.00 353.00 350.00 346.00 342.00 342.00 343.00 343.00 342.00 339.00 336.00 331.00 323.00 309.00 295.00 280.00 270.00 268.00 269.00 270.00 270.00 270.00 269.00 268.00 267.00 267.00 267.00 269.00 270.00 272.00 273.00 275.00 276.00 277.00 277.00 277.00 278.00 278.00 279.00 279.00 278.00 278.00 277.00 276.00 274.00 273.00 271.00 270.00 268.00 267.00 267.00 266.00 266.00 265.00 265.00 265.00 264.00 264.00 264.00 263.00 263.00 263.00 262.00 262.00 261.00 260.00 260.00 259.00 259.00 258.00 258.00 257.00 257.00 256.00 256.00 255.00 255.00 254.00 254.00 254.00 253.00 253.00 253.00 253.00 252.00 252.00 251.00 251.00 250.00 250.00 249.00 248.00 247.00 247.00 246.00 245.00 244.00 244.00 243.00 243.00 243.00 242.00 242.00 242.00 241.00 241.00 241.00 240.00 239.00 239.00 238.00 238.00 237.00 237.00 236.00 236.00 235.00 235.00 234.00 234.00 233.00 232.00 232.00 231.00 230.00 230.00 229.00
204.00 204.00 204.00 203.00 203.00 203.00 203.00 203.00 203.00 203.00 203.00 203.00 203.00 203.00 203.00 203.00 203.00 203.00 203.00 203.00 203.00 203.00 203.00 204.00 204.00 204.00 205.00 205.00 205.00 203.00 203.00 202.00 203.00 203.00 203.00 204.00 204.00 205.00 205.00 205.00 205.00 205.00 205.00 205.00 205.00 205.00 205.00 206.00 206.00 207.00 207.00 208.00 208.00 209.00 209.00 209.00 210.00 215.00 226.00 239.00 251.00 265.00 280.00 294.00 307.00 319.00 330.00 339.00 348.00 358.00 377.00 426.00 508.00 573.00 600.00 614.00 625.00 636.00 650.00 668.00 683.00 688.00 684.00 673.00 650.00 613.00 562.00 519.00 505.00 504.00 501.00 496.00 494.00 500.00 508.00 515.00 519.00 520.00 530.00 547.00 563.00 579.00 592.00 599.00 601.00 599.00 595.00 587.00 573.00 557.00 541.00 524.00 511.00 502.00 495.00 491.00 486.00 482.00 477.00 473.00 468.00 463.00 459.00 454.00 448.00 439.00 428.00 413.00 399.00 391.00 393.00 408.00 424.00 436.00 447.00 456.00 464.00 470.00 475.00 478.00 480.00 482.00 485.00 490.00 494.00 500.00 508.00 515.00 522.00 529.00 538.00 549.00 562.00 579.00 599.00 617.00 635.00 650.00 662.00 673.00 684.00 697.00 710.00 724.00 741.00 760.00 787.00 827.00 867.00 896.00 921.00 946.00 970.00 990.00 1004.00 1012.00 1013.00 1004.00 990.00 977.00 965.00 953.00 942.00 934.00 927.00 918.00 903.00 885.00 866.00 845.00 822.00 796.00 769.00 740.00 713.00 687.00 663.00 641.00 624.00 608.00 592.00 581.00 572.00 560.00 543.00 525.00 509.00 494.00 480.00 468.00 454.00 438.00 425.00 421.00 422.00 421.00 415.00 409.00 405.00 404.00 404.00 403.00 400.00 392.00 384.00 377.00 372.00 369.00 369.00 369.00 368.00 366.00 364.00 363.00 361.00 360.00 358.00 359.00 360.00 361.00 364.00 368.00 371.00 373.00 375.00 377.00 380.00 384.00 386.00 388.00 388.00 388.00 386.00 384.00 381.00 378.00 374.00 371.00 369.00 369.00 373.00 378.00 384.00 392.00 399.00 400.00 397.00 392.00 386.00 379.00 371.00 361.00 352.00 345.00 340.00 336.00 332.00 327.00 325.00 325.00 326.00 326.00 325.00 323.00 319.00 310.00 300.00 290.00 278.00 268.00 265.00 265.00 265.00 265.00 265.00 265.00 265.00 265.00 265.00 266.00 267.00 268.00 269.00 271.00 272.00 273.00 274.00 274.00 275.00 275.00 276.00 276.00 276.00 276.00 276.00 275.00 273.00 272.00 270.00 268.00 267.00 265.00 265.00 264.00 264.00 264.00 263.00 263.00 263.00 262.00 262.00 262.00 261.00 261.00 261.00 260.00 260.00 259.00 259.00 258.00 257.00 257.00 256.00 256.00 255.00 255.00 254.00 254.00 254.00 253.00 253.00 253.00 252.00 252.00 252.00 252.00 251.00 251.00 250.00 250.00 250.00 249.00 248.00 247.00 247.00 246.00 245.00 244.00 244.00 243.00 242.00 242.00 242.00 241.00 241.00 241.00 240.00 240.00 240.00 239.00 239.00 239.00 238.00 238.00 237.00 237.00 236.00 236.00 235.00 235.00 234.00 234.00 233.00 232.00 232.00 231.00 230.00 230.00 229.00 229.00
206.00 205.00 205.00 204.00 204.00 203.00 203.00 203.00 203.00 203.00 203.00 203.00 203.00 203.00 204.00 204.00 204.00 204.00 204.00 204.00 204.00 203.00 203.00 203.00 203.00 204.00 205.00 206.00 206.00 205.00 205.00 205.00 204.00 203.00 203.00 204.00 204.00 204.00 204.00 205.00 205.00 205.00 205.00 205.00 205.00 205.00 205.00 205.00 206.00 207.00 207.00 208.00 208.00 208.00 209.00 209.00 209.00 213.00 220.00 230.00 241.00 254.00 268.00 282.00 294.00 304.00 314.00 322.00 329.00 338.00 349.00 369.00 441.00 538.00 589.00 606.00 616.00 625.00 636.00 650.00 663.00 667.00 660.00 650.00 630.00 596.00 543.00 500.00 487.00 486.00 483.00 478.00 477.00 482.00 489.00 497.00 502.00 508.00 522.00 540.00 556.00 571.00 583.00 587.00 587.00 584.00 579.00 571.00 559.00 545.00 529.00 514.00 504.00 496.00 490.00 486.00 482.00 478.00 473.00 467.00 463.00 458.00 454.00 449.00 442.00 432.00 419.00 404.00 392.00 385.00 391.00 406.00 421.00 433.00 443.00 453.00 461.00 466.00 470.00 473.00 476.00 479.00 484.00 489.00 495.00 501.00 509.00 516.00 522.00 530.00 540.00 552.00 567.00 584.00 604.00 622.00 639.00 653.00 664.00 675.00 687.00 701.00 714.00 729.00 745.00 765.00 798.00 841.00 877.00 901.00 923.00 946.00 970.00 993.00 1004.00 1007.00 1002.00 991.00 977.00 965.00 953.00 941.00 928.00 919.00 914.00 908.00 896.00 883.00 866.00 846.00 823.00 796.00 766.00 734.00 707.00 681.00 655.00 631.00 614.00 600.00 586.00 572.00 558.00 548.00 537.00 520.00 502.00 486.00 472.00 462.00 453.00 442.00 427.00 416.00 412.00 410.00 407.00 404.00 401.00 400.00 400.00 398.00 394.00 388.00 381.00 374.00 368.00 364.00 363.00 363.00 363.00 361.00 357.00 355.00 354.00 354.00 354.00 354.00 356.00 360.00 363.00 366.00 369.00 371.00 372.00 374.00 377.00 380.00 382.00 384.00 384.00 384.00 383.00 381.00 378.00 374.00 370.00 366.00 361.00 363.00 366.00 370.00 376.00 383.00 390.00 392.00 390.00 386.00 381.00 375.00 365.00 354.00 343.00 334.00 328.00 323.00 318.00 313.00 310.00 309.00 310.00 310.00 309.00 307.00 303.00 295.00 287.00 281.00 273.00 266.00 263.00 262.00 261.00 261.00 262.00 262.00 263.00 263.00 263.00 264.00 265.00 266.00 267.00 268.00 269.00 270.00 271.00 272.00 272.00 273.00 273.00 274.00 274.00 274.00 273.00 273.00 271.00 269.00 267.00 265.00 264.00 263.00 262.00 262.00 262.00 261.00 261.00 261.00 261.00 261.00 260.00 260.00 260.00 259.00 259.00 258.00 258.00 257.00 257.00 256.00 256.00 255.00 255.00 254.00 254.00 253.00 253.00 252.00 252.00 252.00 251.00 251.00 251.00 251.00 250.00 250.00 250.00 250.00 249.00 249.00 248.00 248.00 247.00 246.00 245.00 245.00 244.00 243.00 242.00 241.00 241.00 241.00 240.00 240.00 240.00 240.00 239.00 239.00 239.00 239.00 238.00 238.00 238.00 237.00 237.00 236.00 236.00 235.00 235.00 234.00 234.00 233.00 233.00 232.00 231.00 231.00 230.00 229.00 229.00 229.00
206.00 206.00 205.00 205.00 204.00 204.00 204.00 203.00 203.00 203.00 203.00 203.00 204.00 204.00 204.00 204.00 204.00 204.00 204.00 204.00 204.00 204.00 203.00 203.00 203.00 203.00 204.00 205.00 207.00 210.00 210.00 209.00 206.00 205.00 204.00 204.00 204.00 204.00 204.00 204.00 204.00 205.00 205.00 205.00 205.00 205.00 205.00 205.00 206.00 206.00 207.00 208.00 208.00 208.00 208.00 208.00 209.00 210.00 214.00 221.00 232.00 244.00 256.00 268.00 279.00 289.00 297.00 304.00 311.00 320.00 331.00 343.00 375.00 476.00 565.00 596.00 608.00 614.00 620.00 628.00 639.00 640.00 635.00 624.00 605.00 573.00 523.00 482.00 469.00 468.00 466.00 463.00 462.00 465.00 471.00 477.00 485.00 499.00 515.00 533.00 549.00 563.00 571.00 573.00 571.00 567.00 562.00 554.00 545.00 531.00 517.00 505.00 496.00 489.00 485.00 481.00 477.00 474.00 468.00 462.00 457.00 454.00 450.00 444.00 435.00 423.00 408.00 394.00 384.00 381.00 390.00 406.00 421.00 433.00 443.00 451.00 458.00 463.00 466.00 470.00 475.00 480.00 486.00 491.00 497.00 503.00 510.00 516.00 522.00 531.00 542.00 554.00 571.00 589.00 609.00 626.00 642.00 655.00 667.00 678.00 691.00 704.00 717.00 732.00 749.00 772.00 810.00 852.00 883.00 904.00 925.00 947.00 971.00 993.00 1001.00 997.00 990.00 978.00 965.00 952.00 940.00 929.00 916.00 905.00 897.00 891.00 884.00 876.00 861.00 842.00 818.00 792.00 762.00 728.00 700.00 675.00 648.00 624.00 605.00 589.00 576.00 564.00 549.00 537.00 528.00 514.00 499.00 482.00 467.00 456.00 447.00 439.00 430.00 421.00 413.00 405.00 399.00 396.00 394.00 395.00 395.00 394.00 389.00 382.00 376.00 370.00 364.00 361.00 359.00 359.00 358.00 355.00 351.00 349.00 349.00 349.00 350.00 351.00 354.00 358.00 362.00 365.00 367.00 368.00 369.00 371.00 374.00 376.00 378.00 379.00 380.00 380.00 379.00 378.00 375.00 371.00 365.00 360.00 352.00 353.00 356.00 360.00 366.00 373.00 379.00 381.00 381.00 379.00 376.00 371.00 361.00 347.00 333.00 323.00 316.00 311.00 306.00 300.00 296.00 295.00 295.00 294.00 293.00 292.00 288.00 281.00 276.00 271.00 267.00 263.00 260.00 259.00 258.00 258.00 259.00 259.00 260.00 261.00 262.00 263.00 263.00 264.00 265.00 266.00 267.00 268.00 269.00 269.00 270.00 271.00 271.00 272.00 272.00 272.00 271.00 270.00 269.00 267.00 265.00 263.00 262.00 261.00 260.00 260.00 260.00 259.00 259.00 259.00 259.00 259.00 258.00 258.00 258.00 257.00 257.00 257.00 256.00 255.00 255.00 254.00 254.00 253.00 253.00 252.00 252.00 252.00 251.00 251.00 251.00 250.00 250.00 250.00 250.00 249.00 249.00 249.00 249.00 248.00 248.00 247.00 247.00 246.00 246.00 245.00 244.00 243.00 242.00 242.00 241.00 240.00 240.00 239.00 239.00 239.00 239.00 239.00 238.00 238.00 238.00 238.00 237.00 237.00 237.00 236.00 236.00 236.00 235.00 235.00 234.00 234.00 233.00 233.00 232.00 231.00 231.00 230.00 230.00 229.00 229.00 228.00
205.00 206.00 206.00 206.00 205.00 205.00 204.00 204.00 204.00 204.00 204.00 204.00 204.00 204.00 204.00 204.00 204.00 204.00 204.00 204.00 204.00 204.00 203.00 203.00 202.00 202.00 202.00 204.00 208.00 211.00 210.00 210.00 208.00 206.00 205.00 204.00 204.00 203.00 204.00 204.00 204.00 204.00 204.00 205.00 205.00 205.00 205.00 205.00 205.00 206.00 207.00 207.00 208.00 208.00 208.00 208.00 208.00 208.00 210.00 214.00 222.00 231.00 242.00 254.00 264.00 273.00 281.00 288.00 295.00 304.00 314.00 324.00 338.00 389.00 507.00 581.00 598.00 604.00 605.00 607.00 610.00 607.00 601.00 592.00 573.00 543.00 499.00 464.00 452.00 452.00 452.00 450.00 449.00 451.00 455.00 462.00 473.00 491.00 509.00 526.00 541.00 554.00 560.00 559.00 555.00 551.00 546.00 540.00 530.00 518.00 506.00 496.00 488.00 483.00 479.00 476.00 473.00 469.00 463.00 457.00 452.00 449.00 444.00 437.00 426.00 411.00 395.00 384.00 378.00 379.00 390.00 407.00 422.00 434.00 442.00 448.00 453.00 459.00 465.00 471.00 477.00 483.00 488.00 492.00 498.00 504.00 510.00 516.00 523.00 532.00 543.00 558.00 575.00 594.00 613.00 630.00 645.00 659.00 670.00 682.00 694.00 706.00 720.00 735.00 753.00 781.00 822.00 862.00 889.00 909.00 930.00 950.00 971.00 990.00 995.00 988.00 978.00 965.00 952.00 939.00 927.00 917.00 905.00 892.00 882.00 874.00 868.00 860.00 850.00 831.00 803.00 775.00 744.00 714.00 690.00 667.00 644.00 620.00 597.00 580.00 566.00 554.00 541.00 527.00 517.00 507.00 495.00 480.00 465.00 452.00 442.00 434.00 427.00 421.00 415.00 407.00 396.00 388.00 384.00 386.00 390.00 389.00 384.00 378.00 372.00 367.00 362.00 359.00 356.00 355.00 354.00 351.00 348.00 346.00 345.00 345.00 347.00 349.00 353.00 357.00 360.00 363.00 364.00 365.00 366.00 369.00 371.00 373.00 374.00 374.00 375.00 376.00 376.00 376.00 373.00 369.00 363.00 355.00 345.00 343.00 345.00 348.00 353.00 360.00 366.00 369.00 370.00 371.00 371.00 365.00 354.00 339.00 325.00 314.00 307.00 301.00 295.00 289.00 284.00 282.00 281.00 280.00 279.00 277.00 275.00 270.00 266.00 263.00 261.00 259.00 257.00 256.00 255.00 256.00 256.00 257.00 258.00 259.00 260.00 261.00 262.00 263.00 263.00 264.00 265.00 266.00 266.00 267.00 268.00 268.00 269.00 269.00 269.00 269.00 269.00 268.00 267.00 266.00 263.00 261.00 260.00 259.00 258.00 258.00 258.00 257.00 257.00 257.00 257.00 257.00 257.00 256.00 256.00 256.00 255.00 255.00 254.00 254.00 253.00 253.00 252.00 252.00 251.00 251.00 250.00 250.00 250.00 249.00 249.00 249.00 249.00 249.00 248.00 248.00 248.00 248.00 247.00 247.00 246.00 246.00 245.00 245.00 244.00 243.00 243.00 242.00 241.00 240.00 240.00 239.00 239.00 238.00 238.00 238.00 238.00 238.00 237.00 237.00 237.00 237.00 237.00 237.00 236.00 236.00 236.00 235.00 235.00 234.00 234.00 233.00 233.00 232.00 232.00 231.00 230.00 230.00 229.00 229.00 228.00 228.00
204.00 205.00 206.00 206.00 206.00 205.00 205.00 205.00 204.00 204.00 204.00 204.00 204.00 203.00 203.00 203.00 204.00 204.00 204.00 205.00 205.00 204.00 204.00 203.00 202.00 201.00 201.00 203.00 208.00 211.00 210.00 210.00 209.00 208.00 206.00 205.00 204.00 204.00 203.00 204.00 204.00 204.00 204.00 204.00 204.00 204.00 204.00 205.00 205.00 206.00 206.00 207.00 208.00 208.00 208.00 207.00 207.00 207.00 207.00 209.00 213.00 221.00 229.00 238.00 249.00 258.00 266.00 272.00 279.00 288.00 298.00 309.00 321.00 338.00 421.00 525.00 574.00 587.00 586.00 583.00 580.00 574.00 566.00 555.00 541.00 514.00 475.00 446.00 436.00 435.00 435.00 434.00 434.00 437.00 443.00 453.00 468.00 487.00 506.00 521.00 534.00 544.00 547.00 543.00 538.00 535.00 530.00 524.00 515.00 505.00 496.00 488.00 481.00 477.00 474.00 471.00 468.00 464.00 458.00 452.00 446.00 441.00 435.00 426.00 414.00 399.00 386.00 375.00 371.00 378.00 392.00 409.00 423.00 433.00 439.00 445.00 452.00 459.00 466.00 473.00 479.00 484.00 488.00 493.00 498.00 504.00 511.00 518.00 525.00 535.00 546.00 562.00 581.00 600.00 617.00 634.00 650.00 663.00 674.00 685.00 697.00 709.00 722.00 737.00 758.00 792.00 836.00 872.00 896.00 915.00 936.00 954.00 970.00 984.00 988.00 981.00 967.00 954.00 940.00 927.00 915.00 904.00 893.00 881.00 868.00 858.00 851.00 845.00 835.00 814.00 782.00 750.00 720.00 697.00 677.00 657.00 638.00 615.00 590.00 572.00 558.00 545.00 532.00 518.00 506.00 498.00 488.00 476.00 464.00 452.00 441.00 432.00 425.00 419.00 413.00 408.00 400.00 390.00 381.00 379.00 383.00 385.00 380.00 374.00 369.00 365.00 361.00 357.00 353.00 350.00 349.00 346.00 343.00 342.00 342.00 342.00 344.00 348.00 351.00 355.00 358.00 360.00 361.00 361.00 364.00 366.00 368.00 369.00 369.00 368.00 369.00 371.00 372.00 373.00 371.00 368.00 361.00 352.00 340.00 334.00 333.00 335.00 338.00 344.00 350.00 354.00 359.00 362.00 363.00 356.00 344.00 331.00 318.00 307.00 299.00 292.00 286.00 279.00 275.00 272.00 270.00 269.00 267.00 266.00 264.00 261.00 258.00 257.00 255.00 254.00 253.00 253.00 253.00 253.00 254.00 255.00 256.00 258.00 259.00 260.00 260.00 261.00 262.00 262.00 263.00 263.00 264.00 265.00 265.00 266.00 266.00 267.00 267.00 267.00 267.00 266.00 265.00 264.00 262.00 260.00 258.00 257.00 256.00 256.00 256.00 256.00 256.00 255.00 255.00 255.00 255.00 255.00 254.00 254.00 254.00 253.00 253.00 252.00 252.00 251.00 251.00 250.00 250.00 249.00 249.00 249.00 248.00 248.00 248.00 248.00 248.00 247.00 247.00 247.00 247.00 246.00 246.00 246.00 245.00 245.00 244.00 243.00 243.00 242.00 241.00 240.00 240.00 239.00 238.00 238.00 238.00 237.00 237.00 237.00 237.00 237.00 237.00 236.00 236.00 236.00 236.00 236.00 236.00 235.00 235.00 235.00 234.00 234.00 233.00 233.00 232.00 232.00 231.00 230.00 230.00 229.00 229.00 228.00 228.00 227.00
203.00 204.00 205.00 206.00 206.00 206.00 206.00 205.00 205.00 205.00 204.00 204.00 204.00 203.00 203.00 203.00 203.00 203.00 204.00 205.00 205.00 205.00 204.00 203.00 202.00 201.00 202.00 203.00 205.00 207.00 208.00 209.00 208.00 208.00 207.00 205.00 205.00 204.00 204.00 204.00 204.00 204.00 204.00 204.00 204.00 204.00 204.00 204.00 205.00 205.00 206.00 207.00 207.00 208.00 207.00 207.00 206.00 206.00 206.00 207.00 208.00 213.00 220.00 227.00 235.00 246.00 255.00 261.00 265.00 272.00 281.00 293.00 306.00 321.00 354.00 439.00 523.00 559.00 562.00 556.00 549.00 543.00 535.00 527.00 517.00 491.00 452.00 427.00 419.00 418.00 418.00 418.00 420.00 424.00 434.00 449.00 465.00 484.00 502.00 516.00 527.00 532.00 531.00 526.00 521.00 519.00 516.00 510.00 502.00 494.00 487.00 480.00 475.00 472.00 469.00 466.00 462.00 458.00 452.00 446.00 440.00 432.00 423.00 412.00 400.00 389.00 377.00 366.00 367.00 379.00 395.00 411.00 424.00 433.00 439.00 446.00 453.00 461.00 469.00 475.00 480.00 484.00 488.00 493.00 498.00 504.00 512.00 518.00 527.00 537.00 550.00 567.00 585.00 604.00 621.00 639.00 654.00 666.00 677.00 688.00 700.00 712.00 724.00 739.00 765.00 804.00 849.00 881.00 903.00 922.00 941.00 956.00 970.00 981.00 982.00 974.00 961.00 947.00 933.00 919.00 905.00 891.00 879.00 869.00 856.00 845.00 836.00 830.00 820.00 802.00 768.00 734.00 709.00 689.00 670.00 650.00 632.00 610.00 586.00 567.00 552.00 537.00 524.00 512.00 498.00 488.00 478.00 468.00 460.00 451.00 441.00 432.00 425.00 419.00 412.00 407.00 401.00 391.00 382.00 376.00 376.00 378.00 376.00 371.00 366.00 362.00 359.00 354.00 348.00 344.00 342.00 340.00 338.00 338.00 338.00 339.00 342.00 346.00 349.00 352.00 354.00 356.00 357.00 359.00 362.00 364.00 365.00 364.00 363.00 361.00 362.00 365.00 367.00 368.00 369.00 367.00 362.00 352.00 337.00 327.00 324.00 323.00 324.00 327.00 331.00 338.00 345.00 350.00 350.00 343.00 333.00 322.00 310.00 299.00 291.00 283.00 277.00 271.00 267.00 264.00 262.00 259.00 257.00 256.00 254.00 253.00 251.00 250.00 250.00 250.00 250.00 250.00 250.00 251.00 252.00 253.00 255.00 256.00 257.00 258.00 259.00 259.00 260.00 260.00 261.00 261.00 262.00 262.00 263.00 264.00 264.00 264.00 265.00 264.00 264.00 264.00 263.00 262.00 260.00 259.00 257.00 256.00 255.00 254.00 254.00 254.00 254.00 254.00 254.00 253.00 253.00 253.00 253.00 252.00 252.00 252.00 251.00 251.00 250.00 250.00 249.00 249.00 248.00 248.00 247.00 247.00 247.00 246.00 246.00 246.00 246.00 246.00 246.00 246.00 245.00 245.00 245.00 244.00 244.00 243.00 243.00 242.00 241.00 241.00 240.00 239.00 239.00 238.00 237.00 237.00 237.00 236.00 236.00 236.00 236.00 236.00 236.00 236.00 235.00 235.00 235.00 235.00 235.00 235.00 235.00 234.00 234.00 233.00 233.00 232.00 232.00 231.00 230.00 230.00 229.00 229.00 228.00 228.00 227.00 227.00
204.00 202.00 203.00 205.00 205.00 206.00 206.00 206.00 205.00 205.00 205.00 204.00 204.00 203.00 202.00 202.00 202.00 203.00 204.00 205.00 205.00 205.00 204.00 204.00 203.00 202.00 202.00 203.00 203.00 204.00 206.00 207.00 207.00 207.00 207.00 206.00 206.00 205.00 204.00 204.00 204.00 204.00 204.00 204.00 204.00 204.00 204.00 204.00 205.00 205.00 206.00 207.00 207.00 207.00 207.00 207.00 207.00 206.00 206.00 206.00 207.00 209.00 213.00 219.00 225.00 236.00 247.00 252.00 254.00 258.00 265.00 277.00 292.00 307.00 323.00 365.00 439.00 507.00 531.00 527.00 516.00 511.00 509.00 506.00 498.00 469.00 432.00 409.00 402.00 401.00 402.00 404.00 407.00 414.00 429.00 445.00 461.00 479.00 496.00 509.00 516.00 518.00 515.00 511.00 509.00 507.00 504.00 498.00 492.00 485.00 479.00 474.00 469.00 466.00 463.00 460.00 457.00 452.00 447.00 440.00 432.00 422.00 411.00 399.00 390.00 381.00 369.00 362.00 368.00 381.00 397.00 412.00 423.00 432.00 439.00 446.00 453.00 462.00 470.00 476.00 480.00 484.00 488.00 493.00 498.00 504.00 511.00 519.00 528.00 539.00 553.00 571.00 590.00 608.00 625.00 642.00 657.00 669.00 681.00 692.00 703.00 714.00 726.00 742.00 774.00 819.00 860.00 889.00 910.00 927.00 944.00 958.00 972.00 982.00 975.00 964.00 954.00 942.00 927.00 911.00 896.00 881.00 867.00 856.00 844.00 833.00 823.00 815.00 805.00 792.00 765.00 733.00 711.00 692.00 671.00 652.00 631.00 609.00 585.00 564.00 547.00 531.00 517.00 505.00 493.00 481.00 471.00 461.00 452.00 445.00 438.00 430.00 423.00 417.00 412.00 406.00 399.00 390.00 381.00 374.00 368.00 366.00 365.00 363.00 360.00 358.00 355.00 350.00 343.00 338.00 336.00 334.00 334.00 334.00 334.00 336.00 339.00 343.00 346.00 349.00 350.00 352.00 355.00 357.00 360.00 362.00 361.00 359.00 355.00 353.00 354.00 357.00 360.00 363.00 365.00 365.00 363.00 353.00 338.00 324.00 318.00 314.00 311.00 312.00 315.00 321.00 331.00 337.00 335.00 326.00 317.00 308.00 298.00 289.00 282.00 275.00 269.00 264.00 260.00 257.00 254.00 252.00 249.00 247.00 246.00 245.00 244.00 244.00 247.00 246.00 246.00 247.00 248.00 249.00 250.00 252.00 253.00 254.00 255.00 256.00 257.00 257.00 258.00 258.00 259.00 259.00 260.00 260.00 261.00 261.00 262.00 262.00 262.00 262.00 262.00 261.00 261.00 260.00 258.00 257.00 256.00 254.00 253.00 253.00 252.00 252.00 252.00 252.00 252.00 252.00 252.00 251.00 251.00 251.00 250.00 250.00 249.00 249.00 248.00 248.00 248.00 247.00 247.00 246.00 246.00 245.00 245.00 245.00 245.00 245.00 245.00 245.00 245.00 244.00 244.00 244.00 243.00 243.00 242.00 242.00 241.00 241.00 240.00 239.00 239.00 238.00 237.00 237.00 236.00 236.00 236.00 235.00 235.00 235.00 235.00 235.00 235.00 235.00 235.00 235.00 235.00 234.00 234.00 234.00 234.00 234.00 233.00 233.00 232.00 232.00 231.00 231.00 230.00 229.00 229.00 228.00 228.00 227.00 227.00 227.00
