ncols        386
nrows        32
xllcorner    900312.5
yllcorner    6458887.5
cellsize     25.00000000
NODATA_value -99999.00
1374.00 1361.00 1349.00 1340.00 1333.00 1325.00 1318.00 1314.00 1309.00 1305.00 1302.00 1297.00 1292.00 1285.00 1279.00 1274.00 1271.00 1270.00 1269.00 1269.00 1269.00 1270.00 1273.00 1279.00 1287.00 1294.00 1299.00 1300.00 1300.00 1300.00 1301.00 1305.00 1309.00 1313.00 1315.00 1316.00 1316.00 1313.00 1309.00 1304.00 1298.00 1292.00 1288.00 1285.00 1281.00 1277.00 1274.00 1270.00 1263.00 1253.00 1244.00 1237.00 1232.00 1226.00 1221.00 1216.00 1208.00 1198.00 1187.00 1175.00 1165.00 1158.00 1152.00 1147.00 1143.00 1140.00 1138.00 1137.00 1136.00 1136.00 1137.00 1139.00 1141.00 1143.00 1146.00 1150.00 1156.00 1164.00 1175.00 1190.00 1206.00 1221.00 1234.00 1247.00 1260.00 1279.00 1299.00 1319.00 1335.00 1347.00 1366.00 1386.00 1397.00 1403.00 1408.00 1413.00 1421.00 1431.00 1443.00 1464.00 1487.00 1498.00 1500.00 1502.00 1508.00 1517.00 1527.00 1537.00 1545.00 1552.00 1557.00 1561.00 1566.00 1570.00 1572.00 1575.00 1579.00 1588.00 1598.00 1605.00 1610.00 1612.00 1613.00 1613.00 1613.00 1613.00 1613.00 1613.00 1613.00 1614.00 1614.00 1613.00 1610.00 1608.00 1604.00 1599.00 1594.00 1593.00 1593.00 1594.00 1595.00 1594.00 1593.00 1591.00 1590.00 1588.00 1587.00 1587.00 1585.00 1582.00 1578.00 1573.00 1567.00 1562.00 1561.00 1560.00 1558.00 1555.00 1552.00 1548.00 1543.00 1538.00 1533.00 1529.00 1526.00 1522.00 1517.00 1513.00 1508.00 1504.00 1500.00 1496.00 1492.00 1487.00 1482.00 1477.00 1471.00 1467.00 1463.00 1459.00 1455.00 1451.00 1442.00 1426.00 1415.00 1406.00 1402.00 1400.00 1398.00 1395.00 1388.00 1381.00 1376.00 1375.00 1376.00 1374.00 1370.00 1366.00 1363.00 1357.00 1349.00 1339.00 1332.00 1327.00 1316.00 1312.00 1319.00 1324.00 1324.00 1316.00 1306.00 1288.00 1262.00 1242.00 1227.00 1213.00 1200.00 1186.00 1170.00 1158.00 1146.00 1131.00 1116.00 1103.00 1087.00 1069.00 1054.00 1040.00 1025.00 1012.00 1004.00 995.00 977.00 958.00 940.00 913.00 891.00 870.00 845.00 821.00 804.00 794.00 781.00 767.00 754.00 742.00 730.00 725.00 725.00 722.00 718.00 714.00 710.00 706.00 700.00 695.00 691.00 684.00 674.00 663.00 654.00 645.00 634.00 620.00 606.00 596.00 588.00 582.00 576.00 571.00 564.00 556.00 551.00 546.00 537.00 527.00 517.00 512.00 514.00 523.00 538.00 553.00 576.00 590.00 599.00 608.00 616.00 626.00 638.00 650.00 663.00 673.00 683.00 693.00 707.00 717.00 723.00 730.00 738.00 745.00 749.00 748.00 746.00 743.00 744.00 746.00 744.00 741.00 738.00 739.00 747.00 754.00 755.00 754.00 750.00 743.00 733.00 723.00 713.00 689.00 641.00 578.00 526.00 482.00 441.00 404.00 379.00 361.00 338.00 305.00 273.00 239.00 219.00 209.00 206.00 206.00 206.00 207.00 208.00 209.00 209.00 209.00 209.00 209.00 208.00 208.00 208.00 208.00 208.00 208.00 208.00 207.00 207.00 207.00 207.00 207.00 207.00 206.00 205.00 205.00 204.00 204.00 204.00 204.00 204.00 204.00 204.00 204.00 204.00 204.00 204.00 204.00 204.00 204.00 204.00 204.00 204.00 204.00 204.00 204.00 204.00 204.00 204.00 204.00 205.00 205.00
1369.00 1356.00 1345.00 1336.00 1327.00 1319.00 1314.00 1311.00 1308.00 1305.00 1301.00 1298.00 1294.00 1289.00 1282.00 1277.00 1273.00 1270.00 1269.00 1269.00 1269.00 1269.00 1270.00 1274.00 1281.00 1288.00 1293.00 1295.00 1295.00 1296.00 1299.00 1304.00 1309.00 1313.00 1315.00 1316.00 1315.00 1312.00 1309.00 1304.00 1300.00 1297.00 1294.00 1291.00 1286.00 1281.00 1277.00 1271.00 1262.00 1252.00 1243.00 1237.00 1232.00 1224.00 1217.00 1211.00 1203.00 1194.00 1182.00 1171.00 1162.00 1155.00 1149.00 1144.00 1141.00 1138.00 1137.00 1136.00 1136.00 1136.00 1137.00 1139.00 1141.00 1143.00 1147.00 1151.00 1156.00 1164.00 1177.00 1192.00 1207.00 1221.00 1235.00 1248.00 1262.00 1280.00 1300.00 1321.00 1337.00 1347.00 1364.00 1380.00 1388.00 1393.00 1397.00 1400.00 1409.00 1421.00 1438.00 1457.00 1472.00 1480.00 1484.00 1490.00 1499.00 1509.00 1520.00 1530.00 1537.00 1543.00 1549.00 1554.00 1560.00 1565.00 1568.00 1572.00 1577.00 1584.00 1594.00 1602.00 1609.00 1612.00 1613.00 1613.00 1613.00 1614.00 1614.00 1614.00 1614.00 1614.00 1613.00 1612.00 1610.00 1606.00 1602.00 1596.00 1590.00 1591.00 1593.00 1595.00 1596.00 1595.00 1593.00 1591.00 1589.00 1588.00 1587.00 1587.00 1586.00 1583.00 1580.00 1576.00 1571.00 1566.00 1562.00 1559.00 1556.00 1553.00 1550.00 1546.00 1542.00 1536.00 1532.00 1528.00 1524.00 1521.00 1515.00 1511.00 1506.00 1501.00 1497.00 1493.00 1489.00 1485.00 1479.00 1474.00 1469.00 1464.00 1460.00 1456.00 1452.00 1448.00 1440.00 1426.00 1412.00 1403.00 1398.00 1396.00 1394.00 1390.00 1382.00 1374.00 1371.00 1372.00 1370.00 1366.00 1361.00 1357.00 1354.00 1351.00 1348.00 1341.00 1332.00 1323.00 1314.00 1308.00 1313.00 1318.00 1317.00 1310.00 1297.00 1273.00 1250.00 1233.00 1220.00 1208.00 1194.00 1179.00 1165.00 1153.00 1139.00 1123.00 1109.00 1096.00 1079.00 1062.00 1048.00 1032.00 1016.00 1002.00 992.00 982.00 963.00 950.00 933.00 908.00 887.00 863.00 839.00 813.00 797.00 787.00 776.00 764.00 753.00 742.00 729.00 720.00 714.00 709.00 704.00 700.00 698.00 695.00 690.00 685.00 680.00 673.00 665.00 658.00 650.00 641.00 629.00 612.00 600.00 591.00 583.00 575.00 569.00 563.00 557.00 550.00 544.00 537.00 529.00 521.00 513.00 513.00 521.00 538.00 557.00 579.00 595.00 603.00 610.00 617.00 625.00 635.00 649.00 662.00 674.00 683.00 693.00 705.00 720.00 729.00 737.00 745.00 753.00 758.00 760.00 759.00 757.00 755.00 761.00 763.00 762.00 759.00 756.00 755.00 764.00 769.00 770.00 768.00 764.00 756.00 744.00 729.00 716.00 701.00 668.00 616.00 558.00 510.00 466.00 424.00 391.00 370.00 349.00 316.00 283.00 244.00 221.00 211.00 207.00 206.00 206.00 207.00 208.00 209.00 209.00 209.00 209.00 209.00 208.00 208.00 208.00 208.00 208.00 208.00 208.00 208.00 207.00 207.00 207.00 207.00 207.00 207.00 206.00 206.00 205.00 205.00 204.00 204.00 204.00 204.00 204.00 204.00 204.00 204.00 204.00 204.00 204.00 204.00 204.00 204.00 204.00 204.00 204.00 204.00 204.00 204.00 204.00 205.00 205.00 205.00
1367.00 1354.00 1344.00 1335.00 1325.00 1318.00 1314.00 1311.00 1308.00 1305.00 1302.00 1299.00 1296.00 1291.00 1285.00 1280.00 1275.00 1271.00 1269.00 1269.00 1269.00 1268.00 1268.00 1271.00 1275.00 1282.00 1287.00 1290.00 1290.00 1292.00 1298.00 1304.00 1309.00 1313.00 1316.00 1316.00 1314.00 1311.00 1307.00 1304.00 1300.00 1298.00 1296.00 1293.00 1288.00 1283.00 1278.00 1272.00 1262.00 1251.00 1243.00 1237.00 1232.00 1223.00 1215.00 1207.00 1200.00 1190.00 1178.00 1167.00 1159.00 1151.00 1146.00 1142.00 1138.00 1136.00 1135.00 1134.00 1135.00 1136.00 1137.00 1139.00 1141.00 1144.00 1147.00 1151.00 1157.00 1166.00 1179.00 1194.00 1207.00 1221.00 1235.00 1249.00 1263.00 1280.00 1300.00 1321.00 1337.00 1346.00 1354.00 1361.00 1367.00 1372.00 1381.00 1388.00 1400.00 1414.00 1431.00 1447.00 1458.00 1463.00 1472.00 1484.00 1495.00 1504.00 1517.00 1526.00 1532.00 1538.00 1543.00 1547.00 1552.00 1558.00 1564.00 1570.00 1576.00 1583.00 1591.00 1600.00 1607.00 1611.00 1613.00 1613.00 1614.00 1614.00 1615.00 1615.00 1615.00 1615.00 1613.00 1611.00 1607.00 1602.00 1597.00 1590.00 1584.00 1587.00 1593.00 1595.00 1596.00 1594.00 1593.00 1591.00 1589.00 1588.00 1587.00 1587.00 1586.00 1583.00 1581.00 1577.00 1573.00 1568.00 1564.00 1560.00 1556.00 1552.00 1548.00 1545.00 1540.00 1534.00 1529.00 1525.00 1522.00 1518.00 1513.00 1508.00 1503.00 1498.00 1493.00 1490.00 1486.00 1481.00 1476.00 1471.00 1466.00 1462.00 1457.00 1453.00 1449.00 1444.00 1438.00 1425.00 1411.00 1401.00 1394.00 1393.00 1391.00 1386.00 1376.00 1368.00 1368.00 1368.00 1365.00 1359.00 1352.00 1346.00 1342.00 1341.00 1342.00 1340.00 1334.00 1323.00 1312.00 1306.00 1309.00 1313.00 1312.00 1303.00 1284.00 1259.00 1240.00 1226.00 1214.00 1203.00 1188.00 1172.00 1159.00 1147.00 1131.00 1116.00 1103.00 1088.00 1071.00 1056.00 1041.00 1024.00 1008.00 994.00 982.00 969.00 952.00 940.00 923.00 901.00 880.00 857.00 836.00 810.00 791.00 778.00 769.00 759.00 750.00 741.00 732.00 720.00 709.00 700.00 693.00 688.00 686.00 684.00 679.00 672.00 665.00 660.00 655.00 651.00 643.00 636.00 624.00 610.00 600.00 592.00 583.00 574.00 565.00 558.00 552.00 545.00 538.00 530.00 522.00 515.00 511.00 517.00 532.00 554.00 582.00 601.00 608.00 614.00 620.00 627.00 635.00 646.00 661.00 674.00 684.00 695.00 707.00 722.00 732.00 740.00 752.00 759.00 764.00 767.00 769.00 768.00 766.00 768.00 774.00 777.00 777.00 775.00 771.00 771.00 776.00 781.00 784.00 782.00 777.00 768.00 756.00 739.00 720.00 705.00 685.00 651.00 580.00 539.00 491.00 449.00 404.00 380.00 358.00 326.00 290.00 249.00 224.00 213.00 208.00 206.00 206.00 207.00 208.00 209.00 210.00 210.00 209.00 209.00 208.00 208.00 208.00 208.00 208.00 208.00 208.00 208.00 207.00 207.00 207.00 207.00 207.00 207.00 207.00 206.00 206.00 206.00 205.00 205.00 205.00 205.00 204.00 204.00 204.00 204.00 204.00 204.00 204.00 204.00 204.00 204.00 204.00 204.00 204.00 204.00 204.00 205.00 205.00 205.00 205.00 205.00
1365.00 1353.00 1344.00 1336.00 1328.00 1321.00 1317.00 1313.00 1310.00 1306.00 1303.00 1300.00 1296.00 1292.00 1287.00 1282.00 1278.00 1273.00 1270.00 1268.00 1268.00 1268.00 1267.00 1268.00 1271.00 1276.00 1281.00 1284.00 1286.00 1289.00 1298.00 1305.00 1309.00 1313.00 1315.00 1315.00 1312.00 1309.00 1306.00 1303.00 1300.00 1297.00 1294.00 1292.00 1288.00 1283.00 1277.00 1270.00 1262.00 1251.00 1243.00 1237.00 1232.00 1224.00 1213.00 1204.00 1197.00 1187.00 1174.00 1164.00 1156.00 1149.00 1143.00 1139.00 1136.00 1134.00 1133.00 1132.00 1133.00 1135.00 1137.00 1139.00 1141.00 1144.00 1148.00 1152.00 1158.00 1166.00 1180.00 1194.00 1207.00 1220.00 1234.00 1249.00 1262.00 1278.00 1296.00 1314.00 1331.00 1340.00 1342.00 1345.00 1350.00 1355.00 1363.00 1374.00 1389.00 1407.00 1421.00 1434.00 1444.00 1451.00 1466.00 1483.00 1494.00 1502.00 1514.00 1523.00 1531.00 1535.00 1537.00 1539.00 1544.00 1550.00 1559.00 1568.00 1577.00 1584.00 1592.00 1600.00 1606.00 1609.00 1612.00 1613.00 1614.00 1615.00 1616.00 1616.00 1617.00 1616.00 1614.00 1610.00 1605.00 1601.00 1596.00 1590.00 1584.00 1586.00 1591.00 1594.00 1595.00 1594.00 1592.00 1591.00 1589.00 1588.00 1588.00 1587.00 1585.00 1584.00 1581.00 1577.00 1572.00 1568.00 1564.00 1560.00 1556.00 1551.00 1547.00 1542.00 1537.00 1532.00 1526.00 1523.00 1520.00 1516.00 1511.00 1506.00 1501.00 1496.00 1490.00 1486.00 1482.00 1478.00 1473.00 1468.00 1463.00 1459.00 1454.00 1450.00 1445.00 1441.00 1436.00 1426.00 1412.00 1400.00 1392.00 1390.00 1387.00 1381.00 1370.00 1362.00 1363.00 1364.00 1359.00 1351.00 1344.00 1338.00 1335.00 1333.00 1333.00 1334.00 1328.00 1319.00 1311.00 1303.00 1304.00 1308.00 1306.00 1294.00 1268.00 1247.00 1232.00 1220.00 1210.00 1197.00 1180.00 1166.00 1154.00 1140.00 1123.00 1109.00 1096.00 1080.00 1064.00 1049.00 1033.00 1016.00 1000.00 986.00 973.00 960.00 945.00 931.00 912.00 892.00 871.00 851.00 831.00 806.00 785.00 770.00 761.00 751.00 744.00 738.00 732.00 723.00 712.00 700.00 689.00 682.00 679.00 676.00 669.00 661.00 654.00 648.00 645.00 641.00 635.00 629.00 619.00 609.00 602.00 594.00 585.00 574.00 563.00 555.00 548.00 540.00 532.00 524.00 517.00 513.00 511.00 523.00 542.00 571.00 604.00 616.00 618.00 625.00 632.00 638.00 647.00 659.00 674.00 685.00 695.00 709.00 722.00 733.00 743.00 754.00 764.00 771.00 775.00 777.00 779.00 779.00 779.00 782.00 786.00 789.00 790.00 789.00 788.00 787.00 791.00 795.00 797.00 795.00 789.00 780.00 768.00 751.00 728.00 708.00 694.00 671.00 623.00 563.00 518.00 475.00 432.00 394.00 369.00 335.00 298.00 255.00 228.00 215.00 210.00 207.00 206.00 207.00 208.00 209.00 210.00 210.00 209.00 209.00 209.00 208.00 208.00 208.00 208.00 208.00 208.00 208.00 208.00 207.00 207.00 207.00 207.00 207.00 207.00 207.00 206.00 206.00 206.00 205.00 205.00 205.00 204.00 204.00 204.00 204.00 204.00 204.00 204.00 204.00 204.00 204.00 204.00 204.00 204.00 204.00 204.00 205.00 205.00 205.00 205.00 205.00
1364.00 1354.00 1345.00 1338.00 1331.00 1325.00 1321.00 1317.00 1313.00 1308.00 1304.00 1300.00 1296.00 1292.00 1288.00 1284.00 1280.00 1276.00 1272.00 1269.00 1269.00 1268.00 1267.00 1266.00 1267.00 1271.00 1276.00 1280.00 1283.00 1288.00 1296.00 1304.00 1309.00 1312.00 1314.00 1313.00 1310.00 1307.00 1304.00 1301.00 1298.00 1295.00 1292.00 1289.00 1286.00 1281.00 1275.00 1268.00 1260.00 1251.00 1243.00 1237.00 1231.00 1223.00 1211.00 1202.00 1194.00 1183.00 1171.00 1161.00 1152.00 1146.00 1141.00 1137.00 1135.00 1133.00 1131.00 1131.00 1132.00 1134.00 1137.00 1139.00 1142.00 1145.00 1149.00 1154.00 1159.00 1167.00 1180.00 1193.00 1205.00 1218.00 1233.00 1247.00 1260.00 1275.00 1290.00 1304.00 1314.00 1321.00 1324.00 1331.00 1340.00 1346.00 1351.00 1363.00 1378.00 1398.00 1411.00 1421.00 1430.00 1442.00 1463.00 1483.00 1494.00 1502.00 1513.00 1523.00 1530.00 1533.00 1533.00 1532.00 1538.00 1545.00 1555.00 1567.00 1578.00 1586.00 1593.00 1599.00 1604.00 1608.00 1611.00 1613.00 1614.00 1615.00 1617.00 1617.00 1618.00 1617.00 1615.00 1612.00 1608.00 1604.00 1601.00 1596.00 1590.00 1590.00 1591.00 1594.00 1594.00 1593.00 1591.00 1590.00 1590.00 1590.00 1589.00 1588.00 1585.00 1584.00 1582.00 1579.00 1574.00 1569.00 1565.00 1560.00 1555.00 1551.00 1547.00 1542.00 1537.00 1531.00 1525.00 1520.00 1517.00 1513.00 1509.00 1504.00 1499.00 1494.00 1488.00 1482.00 1478.00 1474.00 1470.00 1465.00 1460.00 1455.00 1450.00 1446.00 1441.00 1437.00 1432.00 1426.00 1412.00 1400.00 1392.00 1387.00 1382.00 1375.00 1365.00 1359.00 1361.00 1361.00 1352.00 1343.00 1336.00 1330.00 1326.00 1322.00 1320.00 1319.00 1317.00 1312.00 1307.00 1299.00 1299.00 1303.00 1300.00 1279.00 1255.00 1238.00 1225.00 1214.00 1203.00 1188.00 1172.00 1159.00 1147.00 1132.00 1116.00 1103.00 1089.00 1072.00 1057.00 1042.00 1026.00 1008.00 993.00 980.00 964.00 952.00 940.00 922.00 902.00 882.00 860.00 843.00 824.00 800.00 780.00 766.00 754.00 745.00 738.00 734.00 729.00 724.00 715.00 705.00 693.00 684.00 677.00 670.00 660.00 652.00 646.00 640.00 635.00 629.00 624.00 620.00 613.00 606.00 600.00 593.00 584.00 572.00 562.00 553.00 545.00 537.00 529.00 521.00 517.00 515.00 515.00 531.00 554.00 583.00 620.00 631.00 633.00 637.00 643.00 649.00 658.00 673.00 686.00 695.00 708.00 723.00 734.00 746.00 754.00 766.00 776.00 782.00 785.00 787.00 789.00 791.00 791.00 793.00 795.00 798.00 799.00 800.00 801.00 802.00 805.00 809.00 809.00 806.00 799.00 789.00 777.00 761.00 740.00 717.00 700.00 682.00 653.00 593.00 550.00 506.00 458.00 417.00 384.00 351.00 309.00 265.00 233.00 219.00 210.00 207.00 206.00 207.00 208.00 209.00 209.00 210.00 210.00 209.00 209.00 209.00 208.00 208.00 208.00 208.00 208.00 208.00 208.00 207.00 207.00 207.00 207.00 207.00 207.00 207.00 206.00 206.00 206.00 205.00 205.00 205.00 204.00 204.00 205.00 205.00 205.00 205.00 205.00 205.00 204.00 204.00 204.00 205.00 205.00 205.00 205.00 205.00 205.00 205.00 205.00 205.00
1363.00 1355.00 1347.00 1339.00 1333.00 1328.00 1324.00 1320.00 1314.00 1310.00 1305.00 1301.00 1296.00 1292.00 1288.00 1285.00 1282.00 1279.00 1275.00 1272.00 1272.00 1270.00 1267.00 1265.00 1265.00 1268.00 1273.00 1277.00 1281.00 1287.00 1295.00 1303.00 1308.00 1311.00 1312.00 1311.00 1309.00 1306.00 1302.00 1299.00 1295.00 1292.00 1289.00 1286.00 1284.00 1279.00 1273.00 1266.00 1258.00 1249.00 1241.00 1236.00 1230.00 1220.00 1209.00 1200.00 1191.00 1180.00 1169.00 1158.00 1150.00 1143.00 1138.00 1135.00 1133.00 1131.00 1130.00 1130.00 1132.00 1134.00 1137.00 1139.00 1142.00 1146.00 1150.00 1156.00 1161.00 1168.00 1179.00 1191.00 1202.00 1215.00 1228.00 1243.00 1256.00 1269.00 1282.00 1293.00 1302.00 1309.00 1313.00 1320.00 1331.00 1340.00 1346.00 1355.00 1368.00 1385.00 1398.00 1409.00 1418.00 1435.00 1461.00 1482.00 1494.00 1503.00 1514.00 1522.00 1527.00 1528.00 1528.00 1529.00 1534.00 1543.00 1552.00 1566.00 1578.00 1586.00 1591.00 1597.00 1602.00 1606.00 1609.00 1612.00 1614.00 1616.00 1617.00 1618.00 1619.00 1618.00 1616.00 1614.00 1611.00 1607.00 1604.00 1599.00 1595.00 1594.00 1593.00 1595.00 1595.00 1593.00 1591.00 1591.00 1591.00 1591.00 1591.00 1588.00 1585.00 1583.00 1582.00 1580.00 1576.00 1571.00 1565.00 1558.00 1553.00 1550.00 1546.00 1541.00 1535.00 1530.00 1525.00 1520.00 1514.00 1510.00 1506.00 1502.00 1497.00 1492.00 1486.00 1480.00 1475.00 1471.00 1466.00 1461.00 1456.00 1451.00 1446.00 1441.00 1437.00 1432.00 1429.00 1424.00 1411.00 1399.00 1390.00 1382.00 1376.00 1368.00 1360.00 1359.00 1360.00 1355.00 1344.00 1335.00 1328.00 1320.00 1313.00 1307.00 1306.00 1307.00 1306.00 1305.00 1301.00 1294.00 1293.00 1297.00 1287.00 1264.00 1245.00 1231.00 1218.00 1207.00 1194.00 1179.00 1165.00 1153.00 1139.00 1124.00 1109.00 1096.00 1082.00 1065.00 1050.00 1035.00 1019.00 1003.00 988.00 973.00 958.00 945.00 931.00 913.00 894.00 874.00 852.00 835.00 815.00 794.00 776.00 761.00 747.00 738.00 732.00 728.00 723.00 720.00 715.00 708.00 699.00 690.00 680.00 670.00 659.00 649.00 640.00 632.00 626.00 618.00 614.00 610.00 606.00 601.00 595.00 588.00 580.00 569.00 560.00 551.00 543.00 535.00 527.00 523.00 524.00 524.00 526.00 544.00 564.00 604.00 636.00 643.00 644.00 646.00 650.00 657.00 671.00 685.00 695.00 708.00 725.00 736.00 747.00 756.00 765.00 776.00 787.00 794.00 796.00 796.00 798.00 801.00 802.00 802.00 804.00 806.00 807.00 809.00 812.00 814.00 817.00 819.00 818.00 814.00 808.00 797.00 786.00 770.00 751.00 729.00 707.00 688.00 669.00 624.00 575.00 537.00 484.00 442.00 403.00 369.00 323.00 277.00 240.00 223.00 211.00 208.00 206.00 206.00 207.00 208.00 209.00 210.00 210.00 209.00 209.00 209.00 208.00 208.00 208.00 208.00 208.00 208.00 208.00 208.00 207.00 207.00 207.00 207.00 207.00 207.00 206.00 206.00 205.00 205.00 205.00 205.00 204.00 205.00 205.00 205.00 205.00 205.00 205.00 205.00 205.00 205.00 205.00 205.00 205.00 205.00 205.00 205.00 205.00 205.00 205.00 205.00
1362.00 1355.00 1348.00 1340.00 1333.00 1328.00 1324.00 1320.00 1314.00 1310.00 1306.00 1302.00 1297.00 1292.00 1289.00 1286.00 1284.00 1281.00 1279.00 1278.00 1278.00 1275.00 1268.00 1263.00 1262.00 1266.00 1271.00 1275.00 1280.00 1286.00 1293.00 1301.00 1307.00 1309.00 1310.00 1309.00 1307.00 1305.00 1301.00 1297.00 1292.00 1289.00 1286.00 1284.00 1281.00 1276.00 1270.00 1263.00 1255.00 1246.00 1239.00 1234.00 1226.00 1217.00 1207.00 1198.00 1188.00 1178.00 1166.00 1155.00 1147.00 1140.00 1136.00 1133.00 1131.00 1130.00 1130.00 1130.00 1132.00 1134.00 1137.00 1140.00 1143.00 1146.00 1151.00 1156.00 1162.00 1169.00 1178.00 1187.00 1197.00 1207.00 1221.00 1237.00 1250.00 1262.00 1273.00 1283.00 1292.00 1299.00 1305.00 1313.00 1322.00 1332.00 1342.00 1349.00 1360.00 1373.00 1385.00 1397.00 1409.00 1430.00 1459.00 1480.00 1492.00 1503.00 1513.00 1518.00 1521.00 1524.00 1526.00 1528.00 1533.00 1542.00 1551.00 1564.00 1575.00 1582.00 1588.00 1594.00 1600.00 1605.00 1608.00 1611.00 1614.00 1616.00 1618.00 1619.00 1620.00 1619.00 1617.00 1615.00 1613.00 1609.00 1606.00 1601.00 1598.00 1597.00 1596.00 1596.00 1597.00 1596.00 1594.00 1593.00 1593.00 1592.00 1591.00 1588.00 1585.00 1582.00 1580.00 1578.00 1575.00 1571.00 1565.00 1558.00 1552.00 1548.00 1544.00 1539.00 1534.00 1529.00 1524.00 1518.00 1512.00 1507.00 1502.00 1499.00 1494.00 1489.00 1484.00 1478.00 1473.00 1467.00 1462.00 1457.00 1452.00 1447.00 1442.00 1437.00 1432.00 1428.00 1424.00 1419.00 1410.00 1399.00 1388.00 1379.00 1372.00 1363.00 1356.00 1354.00 1354.00 1347.00 1335.00 1327.00 1319.00 1310.00 1302.00 1297.00 1296.00 1297.00 1298.00 1297.00 1294.00 1288.00 1286.00 1281.00 1270.00 1252.00 1238.00 1225.00 1211.00 1199.00 1186.00 1171.00 1159.00 1146.00 1132.00 1116.00 1103.00 1090.00 1076.00 1059.00 1044.00 1028.00 1012.00 998.00 983.00 967.00 952.00 939.00 924.00 905.00 885.00 865.00 845.00 828.00 809.00 789.00 771.00 754.00 741.00 730.00 724.00 718.00 714.00 713.00 711.00 707.00 701.00 693.00 681.00 672.00 662.00 650.00 639.00 627.00 617.00 610.00 604.00 599.00 596.00 593.00 589.00 583.00 576.00 567.00 558.00 549.00 540.00 534.00 528.00 528.00 534.00 536.00 540.00 556.00 580.00 627.00 646.00 651.00 650.00 652.00 657.00 667.00 683.00 695.00 707.00 724.00 742.00 752.00 759.00 766.00 776.00 786.00 798.00 803.00 804.00 805.00 807.00 809.00 810.00 812.00 813.00 815.00 817.00 819.00 821.00 824.00 827.00 828.00 826.00 821.00 815.00 806.00 795.00 780.00 761.00 740.00 716.00 694.00 678.00 647.00 596.00 556.00 509.00 461.00 421.00 384.00 341.00 292.00 249.00 229.00 215.00 209.00 206.00 206.00 206.00 207.00 208.00 209.00 210.00 210.00 209.00 209.00 208.00 208.00 208.00 208.00 208.00 208.00 208.00 208.00 207.00 207.00 207.00 207.00 207.00 207.00 206.00 206.00 205.00 205.00 204.00 204.00 204.00 205.00 205.00 205.00 205.00 205.00 205.00 205.00 205.00 205.00 205.00 205.00 205.00 205.00 205.00 205.00 205.00 205.00 205.00 205.00
1361.00 1354.00 1347.00 1340.00 1333.00 1328.00 1323.00 1318.00 1313.00 1309.00 1305.00 1301.00 1297.00 1293.00 1289.00 1287.00 1286.00 1285.00 1284.00 1285.00 1284.00 1279.00 1269.00 1262.00 1261.00 1265.00 1270.00 1275.00 1280.00 1286.00 1293.00 1299.00 1304.00 1307.00 1308.00 1308.00 1306.00 1303.00 1299.00 1295.00 1290.00 1286.00 1282.00 1280.00 1277.00 1272.00 1267.00 1260.00 1251.00 1243.00 1237.00 1231.00 1223.00 1215.00 1205.00 1195.00 1185.00 1175.00 1163.00 1151.00 1143.00 1138.00 1134.00 1132.00 1130.00 1129.00 1129.00 1130.00 1132.00 1134.00 1137.00 1140.00 1142.00 1146.00 1150.00 1157.00 1163.00 1169.00 1179.00 1188.00 1195.00 1203.00 1215.00 1229.00 1241.00 1252.00 1263.00 1273.00 1282.00 1289.00 1296.00 1306.00 1316.00 1325.00 1336.00 1344.00 1354.00 1365.00 1377.00 1391.00 1406.00 1427.00 1453.00 1474.00 1487.00 1496.00 1505.00 1513.00 1519.00 1525.00 1531.00 1533.00 1536.00 1542.00 1549.00 1559.00 1570.00 1577.00 1583.00 1590.00 1597.00 1602.00 1607.00 1610.00 1613.00 1616.00 1618.00 1620.00 1621.00 1621.00 1619.00 1617.00 1614.00 1611.00 1607.00 1603.00 1599.00 1598.00 1597.00 1597.00 1597.00 1596.00 1595.00 1594.00 1593.00 1592.00 1590.00 1587.00 1584.00 1581.00 1579.00 1576.00 1573.00 1570.00 1565.00 1559.00 1554.00 1548.00 1542.00 1537.00 1532.00 1528.00 1523.00 1517.00 1510.00 1504.00 1499.00 1495.00 1490.00 1484.00 1479.00 1474.00 1469.00 1464.00 1458.00 1453.00 1448.00 1444.00 1438.00 1433.00 1429.00 1425.00 1420.00 1416.00 1408.00 1396.00 1386.00 1375.00 1367.00 1359.00 1353.00 1349.00 1349.00 1342.00 1330.00 1318.00 1309.00 1301.00 1293.00 1289.00 1289.00 1289.00 1289.00 1289.00 1287.00 1280.00 1276.00 1270.00 1259.00 1245.00 1231.00 1218.00 1205.00 1192.00 1178.00 1165.00 1153.00 1139.00 1123.00 1109.00 1097.00 1084.00 1070.00 1055.00 1039.00 1021.00 1005.00 992.00 976.00 960.00 946.00 934.00 918.00 897.00 876.00 856.00 839.00 823.00 805.00 785.00 766.00 750.00 738.00 727.00 718.00 710.00 703.00 701.00 701.00 700.00 697.00 690.00 680.00 673.00 664.00 650.00 639.00 627.00 615.00 606.00 598.00 590.00 585.00 583.00 580.00 576.00 571.00 563.00 555.00 545.00 536.00 531.00 528.00 533.00 543.00 546.00 548.00 561.00 603.00 641.00 653.00 655.00 655.00 658.00 665.00 676.00 694.00 708.00 721.00 737.00 756.00 766.00 770.00 777.00 787.00 796.00 804.00 809.00 811.00 814.00 816.00 818.00 820.00 821.00 824.00 826.00 828.00 830.00 834.00 839.00 839.00 838.00 836.00 829.00 822.00 814.00 804.00 789.00 772.00 752.00 728.00 704.00 687.00 668.00 636.00 575.00 531.00 477.00 439.00 399.00 360.00 311.00 263.00 236.00 220.00 210.00 206.00 206.00 206.00 206.00 207.00 209.00 210.00 210.00 210.00 209.00 209.00 208.00 208.00 208.00 208.00 208.00 208.00 208.00 207.00 207.00 207.00 207.00 207.00 207.00 206.00 206.00 205.00 204.00 204.00 204.00 204.00 205.00 205.00 205.00 205.00 205.00 205.00 205.00 205.00 205.00 205.00 205.00 205.00 205.00 205.00 205.00 205.00 205.00 205.00 205.00
1359.00 1352.00 1345.00 1338.00 1331.00 1326.00 1321.00 1316.00 1311.00 1308.00 1305.00 1302.00 1298.00 1294.00 1291.00 1289.00 1288.00 1288.00 1289.00 1289.00 1288.00 1281.00 1269.00 1261.00 1261.00 1265.00 1270.00 1275.00 1280.00 1286.00 1292.00 1298.00 1302.00 1305.00 1306.00 1306.00 1304.00 1301.00 1297.00 1293.00 1288.00 1284.00 1280.00 1277.00 1273.00 1269.00 1264.00 1258.00 1249.00 1241.00 1234.00 1227.00 1219.00 1212.00 1202.00 1192.00 1182.00 1172.00 1159.00 1148.00 1140.00 1135.00 1133.00 1131.00 1129.00 1129.00 1129.00 1130.00 1132.00 1134.00 1137.00 1139.00 1142.00 1145.00 1150.00 1157.00 1163.00 1170.00 1181.00 1191.00 1198.00 1209.00 1223.00 1237.00 1247.00 1254.00 1260.00 1266.00 1271.00 1277.00 1285.00 1298.00 1309.00 1321.00 1330.00 1339.00 1349.00 1360.00 1375.00 1390.00 1407.00 1426.00 1447.00 1467.00 1484.00 1494.00 1503.00 1514.00 1523.00 1533.00 1540.00 1542.00 1541.00 1543.00 1548.00 1554.00 1563.00 1570.00 1577.00 1585.00 1593.00 1600.00 1605.00 1610.00 1613.00 1616.00 1618.00 1621.00 1622.00 1622.00 1620.00 1617.00 1614.00 1612.00 1608.00 1604.00 1600.00 1598.00 1597.00 1596.00 1597.00 1596.00 1596.00 1594.00 1592.00 1590.00 1588.00 1586.00 1583.00 1580.00 1577.00 1574.00 1572.00 1569.00 1565.00 1559.00 1553.00 1548.00 1542.00 1537.00 1531.00 1526.00 1522.00 1516.00 1509.00 1502.00 1497.00 1491.00 1486.00 1480.00 1475.00 1470.00 1465.00 1460.00 1455.00 1450.00 1445.00 1440.00 1435.00 1430.00 1425.00 1421.00 1416.00 1411.00 1404.00 1394.00 1384.00 1372.00 1363.00 1355.00 1349.00 1345.00 1341.00 1335.00 1326.00 1313.00 1303.00 1294.00 1286.00 1282.00 1282.00 1282.00 1280.00 1280.00 1279.00 1273.00 1267.00 1262.00 1252.00 1238.00 1225.00 1212.00 1199.00 1186.00 1171.00 1159.00 1146.00 1131.00 1116.00 1104.00 1092.00 1079.00 1065.00 1050.00 1032.00 1014.00 999.00 985.00 969.00 954.00 941.00 928.00 911.00 890.00 870.00 853.00 835.00 817.00 801.00 781.00 764.00 751.00 740.00 731.00 721.00 710.00 700.00 693.00 692.00 692.00 690.00 683.00 676.00 671.00 661.00 648.00 637.00 627.00 616.00 607.00 597.00 587.00 581.00 577.00 572.00 565.00 563.00 558.00 549.00 540.00 532.00 524.00 526.00 537.00 550.00 557.00 561.00 572.00 617.00 649.00 657.00 658.00 660.00 666.00 677.00 688.00 705.00 720.00 734.00 751.00 765.00 776.00 782.00 791.00 799.00 806.00 812.00 816.00 818.00 821.00 826.00 830.00 833.00 833.00 835.00 837.00 839.00 844.00 850.00 853.00 851.00 846.00 841.00 835.00 829.00 822.00 812.00 798.00 782.00 762.00 740.00 716.00 695.00 679.00 659.00 626.00 553.00 496.00 453.00 413.00 375.00 332.00 282.00 247.00 227.00 215.00 208.00 206.00 206.00 206.00 206.00 208.00 210.00 210.00 210.00 209.00 209.00 209.00 209.00 208.00 208.00 208.00 208.00 207.00 207.00 207.00 207.00 207.00 207.00 207.00 207.00 206.00 205.00 204.00 204.00 205.00 205.00 205.00 205.00 205.00 205.00 205.00 205.00 205.00 205.00 205.00 205.00 205.00 205.00 205.00 205.00 205.00 205.00 205.00 205.00 205.00
1356.00 1349.00 1342.00 1335.00 1329.00 1324.00 1319.00 1314.00 1310.00 1307.00 1305.00 1302.00 1300.00 1297.00 1294.00 1292.00 1291.00 1291.00 1291.00 1291.00 1288.00 1279.00 1267.00 1260.00 1260.00 1264.00 1270.00 1275.00 1279.00 1285.00 1291.00 1296.00 1299.00 1302.00 1305.00 1306.00 1303.00 1299.00 1295.00 1291.00 1287.00 1283.00 1279.00 1275.00 1271.00 1266.00 1261.00 1255.00 1248.00 1239.00 1232.00 1224.00 1216.00 1208.00 1199.00 1189.00 1179.00 1169.00 1156.00 1144.00 1137.00 1133.00 1131.00 1130.00 1129.00 1129.00 1129.00 1130.00 1132.00 1134.00 1136.00 1139.00 1142.00 1146.00 1151.00 1158.00 1166.00 1173.00 1183.00 1193.00 1202.00 1215.00 1230.00 1243.00 1252.00 1261.00 1273.00 1281.00 1286.00 1290.00 1297.00 1307.00 1315.00 1324.00 1331.00 1338.00 1348.00 1362.00 1377.00 1392.00 1410.00 1429.00 1450.00 1471.00 1487.00 1497.00 1508.00 1519.00 1530.00 1540.00 1547.00 1548.00 1546.00 1546.00 1550.00 1555.00 1561.00 1568.00 1574.00 1582.00 1591.00 1599.00 1605.00 1609.00 1612.00 1616.00 1620.00 1622.00 1623.00 1623.00 1620.00 1617.00 1614.00 1611.00 1607.00 1602.00 1599.00 1596.00 1595.00 1595.00 1595.00 1595.00 1594.00 1593.00 1590.00 1588.00 1586.00 1584.00 1581.00 1578.00 1574.00 1572.00 1570.00 1567.00 1564.00 1559.00 1553.00 1547.00 1541.00 1535.00 1530.00 1525.00 1520.00 1514.00 1507.00 1500.00 1494.00 1488.00 1482.00 1477.00 1471.00 1465.00 1460.00 1455.00 1451.00 1446.00 1441.00 1436.00 1431.00 1427.00 1422.00 1417.00 1412.00 1406.00 1401.00 1392.00 1380.00 1368.00 1358.00 1351.00 1345.00 1341.00 1338.00 1331.00 1320.00 1309.00 1299.00 1289.00 1279.00 1274.00 1274.00 1274.00 1272.00 1270.00 1269.00 1266.00 1260.00 1253.00 1242.00 1231.00 1218.00 1206.00 1193.00 1179.00 1166.00 1153.00 1140.00 1124.00 1110.00 1098.00 1086.00 1073.00 1059.00 1043.00 1025.00 1007.00 993.00 978.00 962.00 948.00 935.00 922.00 904.00 885.00 865.00 851.00 834.00 814.00 796.00 776.00 762.00 751.00 741.00 733.00 725.00 715.00 705.00 693.00 688.00 686.00 682.00 674.00 668.00 661.00 651.00 642.00 631.00 621.00 611.00 602.00 594.00 586.00 580.00 572.00 562.00 554.00 553.00 551.00 544.00 537.00 530.00 526.00 534.00 546.00 560.00 571.00 586.00 602.00 629.00 653.00 660.00 664.00 670.00 679.00 689.00 700.00 718.00 732.00 750.00 761.00 773.00 785.00 795.00 803.00 809.00 815.00 820.00 823.00 826.00 830.00 834.00 838.00 840.00 841.00 842.00 845.00 849.00 855.00 860.00 859.00 856.00 850.00 844.00 839.00 835.00 830.00 820.00 806.00 791.00 774.00 754.00 729.00 703.00 685.00 669.00 644.00 586.00 517.00 467.00 426.00 388.00 352.00 305.00 263.00 237.00 222.00 211.00 206.00 206.00 206.00 206.00 207.00 209.00 210.00 210.00 210.00 209.00 209.00 209.00 208.00 208.00 208.00 207.00 207.00 207.00 207.00 207.00 207.00 207.00 207.00 207.00 206.00 205.00 205.00 205.00 205.00 205.00 205.00 205.00 205.00 205.00 205.00 205.00 205.00 205.00 205.00 205.00 205.00 205.00 205.00 205.00 205.00 205.00 205.00 205.00 205.00
1353.00 1345.00 1338.00 1331.00 1326.00 1321.00 1316.00 1312.00 1309.00 1307.00 1305.00 1303.00 1301.00 1298.00 1296.00 1295.00 1294.00 1293.00 1292.00 1291.00 1286.00 1277.00 1266.00 1259.00 1259.00 1264.00 1270.00 1275.00 1279.00 1285.00 1290.00 1294.00 1297.00 1300.00 1304.00 1306.00 1303.00 1299.00 1294.00 1290.00 1286.00 1283.00 1279.00 1275.00 1270.00 1264.00 1259.00 1252.00 1244.00 1237.00 1229.00 1220.00 1212.00 1204.00 1195.00 1185.00 1176.00 1165.00 1152.00 1141.00 1135.00 1131.00 1129.00 1128.00 1128.00 1128.00 1129.00 1130.00 1132.00 1134.00 1136.00 1139.00 1143.00 1147.00 1154.00 1161.00 1169.00 1175.00 1186.00 1195.00 1207.00 1219.00 1234.00 1247.00 1255.00 1268.00 1284.00 1297.00 1305.00 1310.00 1313.00 1318.00 1326.00 1332.00 1338.00 1343.00 1352.00 1367.00 1381.00 1396.00 1416.00 1436.00 1459.00 1479.00 1492.00 1504.00 1515.00 1525.00 1535.00 1544.00 1550.00 1552.00 1551.00 1550.00 1554.00 1560.00 1566.00 1571.00 1576.00 1584.00 1594.00 1601.00 1605.00 1608.00 1612.00 1618.00 1622.00 1624.00 1625.00 1624.00 1621.00 1617.00 1614.00 1611.00 1607.00 1603.00 1599.00 1595.00 1593.00 1592.00 1593.00 1593.00 1593.00 1591.00 1588.00 1585.00 1583.00 1581.00 1578.00 1574.00 1571.00 1568.00 1566.00 1563.00 1561.00 1558.00 1552.00 1545.00 1539.00 1533.00 1528.00 1523.00 1518.00 1511.00 1504.00 1497.00 1491.00 1485.00 1479.00 1473.00 1467.00 1461.00 1456.00 1450.00 1445.00 1441.00 1437.00 1432.00 1427.00 1423.00 1418.00 1412.00 1407.00 1402.00 1397.00 1389.00 1376.00 1363.00 1354.00 1348.00 1343.00 1340.00 1337.00 1329.00 1317.00 1305.00 1295.00 1285.00 1274.00 1267.00 1266.00 1266.00 1264.00 1261.00 1259.00 1258.00 1255.00 1245.00 1233.00 1223.00 1211.00 1200.00 1186.00 1173.00 1160.00 1148.00 1133.00 1117.00 1105.00 1093.00 1081.00 1067.00 1052.00 1035.00 1016.00 1000.00 987.00 971.00 956.00 943.00 929.00 916.00 897.00 879.00 861.00 846.00 830.00 812.00 791.00 772.00 758.00 748.00 738.00 731.00 724.00 716.00 707.00 695.00 686.00 682.00 674.00 664.00 654.00 646.00 639.00 633.00 623.00 613.00 603.00 595.00 588.00 580.00 574.00 564.00 554.00 547.00 545.00 542.00 538.00 533.00 529.00 534.00 551.00 561.00 572.00 591.00 624.00 651.00 651.00 658.00 666.00 673.00 681.00 690.00 698.00 712.00 728.00 744.00 759.00 770.00 781.00 794.00 804.00 811.00 817.00 822.00 827.00 831.00 834.00 838.00 842.00 845.00 846.00 846.00 847.00 850.00 855.00 862.00 865.00 863.00 858.00 853.00 848.00 843.00 841.00 840.00 835.00 817.00 799.00 784.00 767.00 743.00 716.00 690.00 675.00 653.00 609.00 537.00 483.00 439.00 401.00 369.00 329.00 282.00 251.00 230.00 215.00 206.00 206.00 206.00 206.00 207.00 209.00 210.00 210.00 210.00 209.00 209.00 208.00 208.00 208.00 208.00 207.00 207.00 207.00 207.00 207.00 207.00 207.00 207.00 207.00 207.00 206.00 205.00 205.00 205.00 205.00 205.00 205.00 205.00 205.00 205.00 205.00 205.00 205.00 205.00 205.00 205.00 205.00 205.00 205.00 205.00 205.00 205.00 205.00 205.00
1349.00 1342.00 1335.00 1327.00 1322.00 1317.00 1314.00 1311.00 1308.00 1306.00 1304.00 1302.00 1301.00 1299.00 1297.00 1296.00 1295.00 1293.00 1292.00 1289.00 1284.00 1275.00 1264.00 1258.00 1258.00 1263.00 1269.00 1274.00 1279.00 1284.00 1289.00 1293.00 1296.00 1299.00 1303.00 1306.00 1303.00 1298.00 1293.00 1289.00 1286.00 1283.00 1281.00 1276.00 1270.00 1263.00 1257.00 1249.00 1241.00 1232.00 1224.00 1216.00 1208.00 1200.00 1192.00 1181.00 1172.00 1161.00 1148.00 1138.00 1132.00 1129.00 1127.00 1127.00 1127.00 1128.00 1129.00 1130.00 1132.00 1134.00 1137.00 1140.00 1144.00 1149.00 1156.00 1163.00 1171.00 1178.00 1188.00 1198.00 1211.00 1224.00 1238.00 1249.00 1259.00 1275.00 1295.00 1309.00 1318.00 1321.00 1323.00 1326.00 1332.00 1338.00 1346.00 1357.00 1364.00 1372.00 1384.00 1401.00 1422.00 1444.00 1468.00 1485.00 1498.00 1509.00 1520.00 1530.00 1539.00 1547.00 1552.00 1555.00 1554.00 1554.00 1557.00 1564.00 1570.00 1574.00 1579.00 1588.00 1597.00 1603.00 1607.00 1610.00 1614.00 1620.00 1624.00 1627.00 1627.00 1626.00 1622.00 1619.00 1615.00 1612.00 1608.00 1605.00 1601.00 1596.00 1592.00 1591.00 1591.00 1592.00 1591.00 1589.00 1586.00 1584.00 1581.00 1579.00 1576.00 1572.00 1568.00 1565.00 1562.00 1560.00 1558.00 1556.00 1551.00 1544.00 1537.00 1532.00 1526.00 1522.00 1516.00 1508.00 1502.00 1495.00 1489.00 1482.00 1475.00 1469.00 1463.00 1458.00 1452.00 1445.00 1439.00 1434.00 1431.00 1427.00 1423.00 1419.00 1414.00 1408.00 1402.00 1397.00 1392.00 1384.00 1372.00 1361.00 1357.00 1351.00 1346.00 1339.00 1333.00 1325.00 1313.00 1300.00 1290.00 1281.00 1271.00 1262.00 1258.00 1257.00 1255.00 1253.00 1251.00 1249.00 1247.00 1238.00 1225.00 1214.00 1204.00 1192.00 1180.00 1167.00 1154.00 1141.00 1125.00 1111.00 1099.00 1087.00 1074.00 1060.00 1045.00 1026.00 1008.00 994.00 980.00 965.00 951.00 938.00 923.00 909.00 892.00 873.00 854.00 838.00 824.00 807.00 786.00 769.00 755.00 744.00 734.00 727.00 720.00 712.00 702.00 690.00 682.00 677.00 670.00 659.00 645.00 634.00 625.00 618.00 611.00 602.00 594.00 588.00 579.00 570.00 563.00 554.00 547.00 541.00 539.00 537.00 533.00 531.00 532.00 548.00 568.00 577.00 588.00 621.00 660.00 676.00 671.00 668.00 673.00 682.00 690.00 698.00 708.00 722.00 736.00 751.00 765.00 776.00 788.00 800.00 811.00 818.00 824.00 830.00 835.00 838.00 841.00 845.00 849.00 852.00 852.00 850.00 851.00 856.00 863.00 869.00 870.00 867.00 862.00 859.00 853.00 849.00 849.00 851.00 849.00 834.00 814.00 795.00 777.00 757.00 730.00 696.00 680.00 661.00 623.00 556.00 501.00 452.00 414.00 384.00 352.00 307.00 268.00 240.00 221.00 210.00 206.00 206.00 206.00 206.00 208.00 209.00 210.00 210.00 209.00 208.00 208.00 207.00 207.00 208.00 208.00 207.00 207.00 207.00 207.00 207.00 207.00 207.00 207.00 207.00 206.00 206.00 205.00 205.00 205.00 205.00 205.00 205.00 205.00 205.00 205.00 205.00 205.00 205.00 205.00 205.00 205.00 205.00 205.00 205.00 205.00 205.00 205.00 205.00
1346.00 1339.00 1330.00 1323.00 1318.00 1315.00 1313.00 1310.00 1308.00 1305.00 1303.00 1301.00 1299.00 1297.00 1295.00 1294.00 1293.00 1292.00 1291.00 1287.00 1283.00 1273.00 1262.00 1257.00 1257.00 1262.00 1268.00 1274.00 1278.00 1283.00 1287.00 1291.00 1295.00 1298.00 1302.00 1305.00 1303.00 1297.00 1292.00 1288.00 1286.00 1284.00 1281.00 1275.00 1269.00 1262.00 1255.00 1246.00 1237.00 1228.00 1220.00 1211.00 1202.00 1195.00 1188.00 1178.00 1169.00 1158.00 1145.00 1135.00 1130.00 1126.00 1125.00 1125.00 1126.00 1127.00 1129.00 1130.00 1132.00 1134.00 1137.00 1141.00 1146.00 1151.00 1157.00 1165.00 1173.00 1181.00 1191.00 1202.00 1215.00 1227.00 1241.00 1253.00 1264.00 1284.00 1307.00 1321.00 1328.00 1331.00 1333.00 1333.00 1336.00 1343.00 1357.00 1372.00 1379.00 1382.00 1390.00 1409.00 1429.00 1454.00 1476.00 1491.00 1503.00 1513.00 1524.00 1533.00 1541.00 1548.00 1555.00 1558.00 1558.00 1559.00 1562.00 1567.00 1572.00 1577.00 1583.00 1591.00 1599.00 1605.00 1609.00 1613.00 1616.00 1621.00 1625.00 1628.00 1629.00 1628.00 1624.00 1620.00 1617.00 1613.00 1610.00 1606.00 1603.00 1599.00 1594.00 1592.00 1591.00 1591.00 1590.00 1588.00 1585.00 1583.00 1581.00 1579.00 1575.00 1572.00 1567.00 1563.00 1560.00 1558.00 1556.00 1553.00 1551.00 1543.00 1535.00 1529.00 1523.00 1518.00 1512.00 1505.00 1499.00 1493.00 1486.00 1479.00 1472.00 1466.00 1460.00 1454.00 1448.00 1443.00 1434.00 1428.00 1424.00 1421.00 1417.00 1414.00 1409.00 1403.00 1397.00 1392.00 1386.00 1378.00 1368.00 1361.00 1360.00 1353.00 1346.00 1338.00 1330.00 1319.00 1307.00 1296.00 1286.00 1277.00 1268.00 1259.00 1251.00 1246.00 1243.00 1241.00 1241.00 1239.00 1236.00 1230.00 1219.00 1208.00 1197.00 1185.00 1173.00 1162.00 1149.00 1134.00 1118.00 1105.00 1093.00 1082.00 1068.00 1054.00 1037.00 1017.00 1001.00 988.00 974.00 959.00 946.00 932.00 918.00 903.00 886.00 867.00 846.00 830.00 818.00 798.00 780.00 764.00 752.00 740.00 731.00 724.00 716.00 706.00 695.00 682.00 675.00 670.00 664.00 653.00 640.00 624.00 612.00 603.00 597.00 590.00 584.00 577.00 566.00 559.00 553.00 547.00 542.00 539.00 540.00 539.00 536.00 538.00 547.00 567.00 585.00 599.00 611.00 652.00 680.00 685.00 682.00 678.00 680.00 689.00 699.00 707.00 718.00 730.00 744.00 757.00 770.00 783.00 796.00 808.00 818.00 827.00 834.00 840.00 843.00 846.00 849.00 853.00 857.00 859.00 859.00 857.00 858.00 864.00 872.00 876.00 874.00 872.00 869.00 865.00 862.00 861.00 860.00 858.00 853.00 844.00 831.00 812.00 788.00 767.00 744.00 704.00 685.00 666.00 639.00 583.00 514.00 463.00 427.00 397.00 368.00 332.00 289.00 254.00 227.00 213.00 207.00 206.00 206.00 206.00 207.00 208.00 209.00 209.00 208.00 207.00 207.00 207.00 207.00 207.00 208.00 208.00 208.00 208.00 208.00 208.00 207.00 207.00 207.00 207.00 207.00 206.00 205.00 205.00 204.00 204.00 204.00 204.00 205.00 205.00 205.00 205.00 205.00 205.00 205.00 205.00 205.00 205.00 205.00 205.00 205.00 205.00 205.00 206.00
1342.00 1335.00 1325.00 1319.00 1315.00 1313.00 1311.00 1309.00 1306.00 1304.00 1301.00 1298.00 1296.00 1293.00 1291.00 1291.00 1290.00 1290.00 1289.00 1286.00 1280.00 1269.00 1259.00 1255.00 1255.00 1260.00 1266.00 1272.00 1277.00 1282.00 1286.00 1290.00 1294.00 1298.00 1301.00 1302.00 1301.00 1296.00 1292.00 1288.00 1286.00 1283.00 1279.00 1273.00 1267.00 1260.00 1252.00 1242.00 1234.00 1225.00 1215.00 1206.00 1198.00 1192.00 1184.00 1176.00 1167.00 1155.00 1142.00 1133.00 1127.00 1125.00 1124.00 1124.00 1125.00 1126.00 1128.00 1130.00 1132.00 1135.00 1138.00 1142.00 1147.00 1152.00 1159.00 1167.00 1175.00 1184.00 1193.00 1206.00 1219.00 1230.00 1246.00 1258.00 1271.00 1295.00 1317.00 1332.00 1341.00 1344.00 1345.00 1344.00 1344.00 1352.00 1373.00 1392.00 1398.00 1397.00 1401.00 1418.00 1437.00 1465.00 1483.00 1495.00 1507.00 1517.00 1527.00 1536.00 1543.00 1550.00 1558.00 1562.00 1564.00 1566.00 1567.00 1570.00 1574.00 1579.00 1584.00 1592.00 1600.00 1606.00 1611.00 1615.00 1618.00 1622.00 1626.00 1629.00 1631.00 1630.00 1626.00 1622.00 1618.00 1614.00 1610.00 1606.00 1603.00 1600.00 1596.00 1594.00 1593.00 1591.00 1590.00 1587.00 1585.00 1582.00 1579.00 1577.00 1574.00 1572.00 1567.00 1562.00 1558.00 1555.00 1554.00 1551.00 1548.00 1541.00 1533.00 1526.00 1520.00 1513.00 1507.00 1501.00 1495.00 1489.00 1483.00 1476.00 1470.00 1464.00 1458.00 1451.00 1444.00 1438.00 1430.00 1423.00 1417.00 1413.00 1410.00 1407.00 1403.00 1398.00 1392.00 1386.00 1379.00 1371.00 1365.00 1362.00 1357.00 1350.00 1343.00 1334.00 1325.00 1313.00 1302.00 1293.00 1283.00 1272.00 1264.00 1255.00 1245.00 1236.00 1230.00 1228.00 1227.00 1226.00 1227.00 1224.00 1213.00 1202.00 1190.00 1177.00 1167.00 1156.00 1142.00 1125.00 1111.00 1099.00 1088.00 1075.00 1061.00 1047.00 1027.00 1008.00 995.00 983.00 968.00 953.00 940.00 926.00 913.00 898.00 879.00 858.00 838.00 822.00 808.00 790.00 773.00 759.00 749.00 737.00 728.00 719.00 710.00 700.00 689.00 677.00 669.00 661.00 652.00 644.00 635.00 618.00 606.00 595.00 588.00 581.00 573.00 565.00 555.00 549.00 546.00 542.00 542.00 546.00 549.00 549.00 551.00 555.00 568.00 588.00 613.00 632.00 641.00 669.00 684.00 688.00 688.00 687.00 688.00 696.00 709.00 718.00 728.00 739.00 752.00 765.00 778.00 790.00 803.00 815.00 826.00 835.00 844.00 851.00 853.00 854.00 857.00 861.00 865.00 867.00 866.00 865.00 867.00 873.00 881.00 881.00 878.00 876.00 874.00 873.00 873.00 873.00 870.00 864.00 856.00 848.00 839.00 826.00 803.00 776.00 755.00 726.00 690.00 670.00 647.00 608.00 531.00 479.00 445.00 414.00 383.00 351.00 307.00 266.00 231.00 217.00 209.00 206.00 206.00 206.00 206.00 207.00 207.00 207.00 207.00 206.00 206.00 206.00 206.00 207.00 208.00 208.00 208.00 208.00 208.00 208.00 208.00 207.00 207.00 207.00 207.00 207.00 206.00 205.00 205.00 204.00 204.00 204.00 205.00 205.00 205.00 205.00 205.00 205.00 205.00 205.00 205.00 205.00 205.00 205.00 205.00 205.00 206.00 206.00
1338.00 1332.00 1324.00 1318.00 1314.00 1311.00 1309.00 1306.00 1303.00 1300.00 1297.00 1294.00 1292.00 1290.00 1289.00 1288.00 1288.00 1287.00 1285.00 1282.00 1274.00 1264.00 1256.00 1253.00 1254.00 1258.00 1264.00 1270.00 1276.00 1281.00 1285.00 1289.00 1293.00 1297.00 1299.00 1300.00 1299.00 1295.00 1291.00 1288.00 1286.00 1282.00 1277.00 1271.00 1265.00 1258.00 1249.00 1240.00 1231.00 1221.00 1211.00 1202.00 1195.00 1189.00 1181.00 1172.00 1164.00 1152.00 1139.00 1130.00 1126.00 1124.00 1122.00 1122.00 1123.00 1126.00 1129.00 1131.00 1133.00 1136.00 1139.00 1143.00 1149.00 1154.00 1161.00 1169.00 1176.00 1185.00 1195.00 1209.00 1221.00 1236.00 1251.00 1263.00 1279.00 1303.00 1325.00 1343.00 1355.00 1360.00 1362.00 1362.00 1360.00 1369.00 1393.00 1409.00 1415.00 1415.00 1415.00 1426.00 1446.00 1473.00 1487.00 1498.00 1509.00 1519.00 1529.00 1537.00 1545.00 1552.00 1560.00 1566.00 1569.00 1571.00 1572.00 1574.00 1577.00 1580.00 1585.00 1592.00 1600.00 1607.00 1613.00 1617.00 1620.00 1624.00 1627.00 1630.00 1631.00 1630.00 1627.00 1622.00 1617.00 1613.00 1609.00 1605.00 1602.00 1600.00 1597.00 1594.00 1593.00 1592.00 1589.00 1586.00 1583.00 1581.00 1577.00 1573.00 1572.00 1570.00 1566.00 1560.00 1556.00 1553.00 1551.00 1549.00 1544.00 1537.00 1530.00 1524.00 1518.00 1511.00 1505.00 1499.00 1492.00 1486.00 1480.00 1474.00 1468.00 1462.00 1456.00 1448.00 1440.00 1432.00 1426.00 1419.00 1412.00 1407.00 1403.00 1401.00 1397.00 1393.00 1387.00 1380.00 1373.00 1367.00 1363.00 1359.00 1355.00 1348.00 1338.00 1328.00 1319.00 1308.00 1299.00 1290.00 1280.00 1270.00 1262.00 1253.00 1241.00 1231.00 1222.00 1218.00 1217.00 1217.00 1219.00 1217.00 1206.00 1195.00 1181.00 1169.00 1160.00 1150.00 1134.00 1117.00 1104.00 1093.00 1081.00 1067.00 1054.00 1037.00 1016.00 1001.00 990.00 977.00 962.00 948.00 935.00 920.00 907.00 893.00 873.00 850.00 833.00 817.00 800.00 784.00 768.00 757.00 746.00 736.00 727.00 715.00 704.00 695.00 683.00 673.00 665.00 652.00 643.00 636.00 627.00 615.00 603.00 593.00 585.00 574.00 564.00 554.00 546.00 543.00 542.00 544.00 551.00 562.00 566.00 566.00 567.00 575.00 589.00 612.00 642.00 656.00 666.00 680.00 688.00 692.00 694.00 695.00 695.00 702.00 718.00 734.00 742.00 751.00 761.00 773.00 784.00 796.00 810.00 822.00 833.00 842.00 853.00 860.00 863.00 864.00 867.00 871.00 873.00 874.00 874.00 874.00 876.00 882.00 887.00 887.00 884.00 882.00 881.00 881.00 882.00 882.00 875.00 866.00 857.00 849.00 842.00 833.00 817.00 789.00 764.00 742.00 705.00 675.00 652.00 626.00 568.00 514.00 480.00 445.00 409.00 368.00 325.00 278.00 237.00 222.00 212.00 207.00 206.00 206.00 206.00 206.00 207.00 206.00 206.00 206.00 205.00 206.00 207.00 208.00 208.00 209.00 209.00 209.00 208.00 208.00 208.00 208.00 207.00 207.00 207.00 207.00 207.00 206.00 205.00 204.00 204.00 204.00 204.00 205.00 205.00 205.00 205.00 205.00 205.00 205.00 205.00 205.00 205.00 205.00 205.00 206.00 206.00 206.00
1336.00 1331.00 1325.00 1319.00 1314.00 1310.00 1307.00 1303.00 1299.00 1294.00 1292.00 1290.00 1289.00 1287.00 1287.00 1286.00 1285.00 1283.00 1279.00 1275.00 1267.00 1258.00 1253.00 1251.00 1252.00 1257.00 1262.00 1268.00 1274.00 1279.00 1284.00 1288.00 1292.00 1296.00 1298.00 1298.00 1297.00 1295.00 1292.00 1289.00 1285.00 1281.00 1274.00 1268.00 1262.00 1255.00 1246.00 1237.00 1228.00 1218.00 1207.00 1199.00 1192.00 1184.00 1177.00 1168.00 1159.00 1147.00 1136.00 1128.00 1124.00 1123.00 1121.00 1120.00 1122.00 1125.00 1129.00 1132.00 1134.00 1137.00 1140.00 1145.00 1150.00 1156.00 1163.00 1170.00 1177.00 1186.00 1197.00 1210.00 1223.00 1240.00 1255.00 1265.00 1287.00 1310.00 1331.00 1351.00 1367.00 1373.00 1376.00 1376.00 1378.00 1390.00 1409.00 1422.00 1429.00 1430.00 1425.00 1431.00 1453.00 1478.00 1490.00 1500.00 1510.00 1520.00 1530.00 1538.00 1546.00 1554.00 1561.00 1567.00 1572.00 1574.00 1575.00 1577.00 1579.00 1581.00 1585.00 1592.00 1601.00 1609.00 1614.00 1618.00 1622.00 1626.00 1628.00 1631.00 1631.00 1630.00 1626.00 1621.00 1615.00 1611.00 1608.00 1604.00 1602.00 1599.00 1596.00 1593.00 1591.00 1590.00 1587.00 1584.00 1582.00 1579.00 1576.00 1571.00 1570.00 1568.00 1563.00 1558.00 1554.00 1550.00 1549.00 1546.00 1542.00 1536.00 1528.00 1521.00 1515.00 1509.00 1504.00 1498.00 1492.00 1486.00 1479.00 1474.00 1468.00 1462.00 1455.00 1447.00 1440.00 1432.00 1425.00 1418.00 1410.00 1403.00 1397.00 1394.00 1391.00 1386.00 1381.00 1377.00 1371.00 1363.00 1359.00 1356.00 1352.00 1342.00 1331.00 1322.00 1313.00 1304.00 1296.00 1287.00 1277.00 1268.00 1261.00 1252.00 1241.00 1230.00 1218.00 1211.00 1209.00 1209.00 1213.00 1210.00 1198.00 1185.00 1173.00 1162.00 1151.00 1140.00 1124.00 1109.00 1098.00 1086.00 1073.00 1059.00 1045.00 1026.00 1007.00 995.00 985.00 972.00 956.00 943.00 928.00 914.00 901.00 887.00 867.00 845.00 830.00 813.00 797.00 781.00 766.00 758.00 746.00 736.00 727.00 713.00 702.00 692.00 681.00 671.00 663.00 649.00 639.00 630.00 620.00 610.00 600.00 591.00 582.00 568.00 556.00 547.00 542.00 542.00 547.00 558.00 569.00 579.00 584.00 585.00 585.00 593.00 607.00 635.00 662.00 680.00 689.00 691.00 697.00 701.00 704.00 704.00 703.00 710.00 729.00 749.00 760.00 764.00 770.00 780.00 792.00 803.00 818.00 830.00 839.00 849.00 860.00 868.00 873.00 875.00 877.00 880.00 883.00 884.00 885.00 884.00 885.00 889.00 892.00 892.00 891.00 891.00 891.00 892.00 892.00 888.00 880.00 869.00 859.00 848.00 841.00 834.00 823.00 805.00 775.00 753.00 725.00 685.00 657.00 636.00 606.00 564.00 525.00 488.00 442.00 392.00 343.00 294.00 249.00 226.00 218.00 210.00 207.00 206.00 206.00 207.00 207.00 207.00 206.00 206.00 206.00 207.00 208.00 209.00 209.00 209.00 209.00 209.00 208.00 208.00 208.00 208.00 208.00 208.00 207.00 207.00 207.00 206.00 206.00 205.00 204.00 204.00 204.00 204.00 205.00 205.00 205.00 205.00 205.00 205.00 205.00 205.00 205.00 205.00 206.00 206.00 206.00 206.00
1335.00 1330.00 1325.00 1320.00 1315.00 1310.00 1306.00 1302.00 1296.00 1290.00 1288.00 1287.00 1286.00 1286.00 1285.00 1283.00 1281.00 1278.00 1273.00 1267.00 1260.00 1255.00 1251.00 1250.00 1251.00 1255.00 1261.00 1267.00 1273.00 1278.00 1283.00 1287.00 1291.00 1294.00 1296.00 1297.00 1296.00 1294.00 1292.00 1288.00 1284.00 1278.00 1272.00 1266.00 1260.00 1253.00 1244.00 1236.00 1226.00 1215.00 1205.00 1196.00 1188.00 1180.00 1172.00 1164.00 1154.00 1143.00 1133.00 1127.00 1123.00 1121.00 1120.00 1121.00 1122.00 1125.00 1129.00 1132.00 1135.00 1138.00 1141.00 1146.00 1151.00 1157.00 1164.00 1171.00 1178.00 1187.00 1198.00 1211.00 1226.00 1243.00 1258.00 1271.00 1293.00 1315.00 1334.00 1353.00 1373.00 1384.00 1391.00 1393.00 1397.00 1408.00 1422.00 1434.00 1446.00 1448.00 1440.00 1440.00 1458.00 1479.00 1491.00 1501.00 1511.00 1521.00 1530.00 1539.00 1547.00 1555.00 1562.00 1569.00 1573.00 1576.00 1577.00 1579.00 1581.00 1583.00 1587.00 1593.00 1602.00 1610.00 1615.00 1619.00 1623.00 1627.00 1630.00 1631.00 1631.00 1630.00 1627.00 1622.00 1613.00 1610.00 1607.00 1604.00 1602.00 1599.00 1596.00 1592.00 1590.00 1589.00 1587.00 1584.00 1581.00 1579.00 1575.00 1572.00 1570.00 1567.00 1562.00 1557.00 1552.00 1548.00 1546.00 1543.00 1540.00 1534.00 1527.00 1520.00 1513.00 1508.00 1502.00 1496.00 1490.00 1485.00 1479.00 1474.00 1468.00 1461.00 1453.00 1446.00 1438.00 1430.00 1423.00 1416.00 1408.00 1400.00 1393.00 1388.00 1384.00 1380.00 1376.00 1372.00 1365.00 1358.00 1354.00 1351.00 1346.00 1337.00 1326.00 1315.00 1307.00 1299.00 1291.00 1283.00 1274.00 1266.00 1258.00 1249.00 1240.00 1229.00 1215.00 1206.00 1202.00 1201.00 1204.00 1200.00 1189.00 1177.00 1166.00 1156.00 1141.00 1129.00 1114.00 1102.00 1091.00 1079.00 1065.00 1052.00 1036.00 1016.00 1001.00 990.00 979.00 965.00 951.00 937.00 922.00 908.00 895.00 880.00 860.00 841.00 828.00 812.00 796.00 779.00 764.00 757.00 745.00 735.00 727.00 714.00 700.00 692.00 681.00 670.00 661.00 649.00 638.00 628.00 617.00 606.00 597.00 589.00 579.00 562.00 551.00 547.00 545.00 547.00 560.00 576.00 588.00 597.00 604.00 606.00 605.00 610.00 629.00 660.00 687.00 706.00 707.00 704.00 709.00 712.00 713.00 713.00 715.00 723.00 740.00 758.00 770.00 777.00 781.00 789.00 798.00 810.00 825.00 836.00 845.00 857.00 868.00 875.00 880.00 884.00 888.00 892.00 894.00 896.00 897.00 895.00 894.00 895.00 896.00 897.00 899.00 901.00 903.00 904.00 902.00 895.00 883.00 873.00 861.00 848.00 840.00 833.00 824.00 809.00 784.00 761.00 736.00 699.00 663.00 641.00 621.00 598.00 567.00 526.00 475.00 419.00 368.00 318.00 269.00 235.00 223.00 215.00 209.00 207.00 207.00 208.00 209.00 209.00 209.00 209.00 209.00 210.00 210.00 211.00 210.00 210.00 209.00 209.00 208.00 208.00 208.00 208.00 208.00 208.00 208.00 207.00 207.00 207.00 206.00 205.00 204.00 204.00 204.00 204.00 205.00 205.00 205.00 205.00 205.00 205.00 205.00 205.00 205.00 205.00 206.00 206.00 206.00 206.00
1333.00 1330.00 1325.00 1320.00 1315.00 1311.00 1306.00 1301.00 1295.00 1289.00 1286.00 1285.00 1284.00 1283.00 1282.00 1279.00 1276.00 1272.00 1268.00 1261.00 1256.00 1252.00 1249.00 1248.00 1250.00 1254.00 1260.00 1266.00 1271.00 1276.00 1281.00 1285.00 1289.00 1293.00 1295.00 1296.00 1296.00 1294.00 1292.00 1287.00 1282.00 1275.00 1269.00 1264.00 1259.00 1251.00 1242.00 1234.00 1225.00 1214.00 1203.00 1194.00 1185.00 1177.00 1169.00 1160.00 1150.00 1140.00 1131.00 1126.00 1122.00 1120.00 1120.00 1121.00 1123.00 1126.00 1129.00 1133.00 1135.00 1139.00 1142.00 1146.00 1151.00 1157.00 1164.00 1171.00 1179.00 1188.00 1199.00 1213.00 1229.00 1245.00 1260.00 1276.00 1298.00 1318.00 1334.00 1353.00 1374.00 1390.00 1401.00 1408.00 1413.00 1422.00 1434.00 1448.00 1460.00 1464.00 1461.00 1461.00 1471.00 1483.00 1493.00 1503.00 1513.00 1523.00 1532.00 1539.00 1547.00 1556.00 1563.00 1570.00 1574.00 1577.00 1579.00 1581.00 1583.00 1586.00 1590.00 1596.00 1604.00 1610.00 1615.00 1620.00 1624.00 1628.00 1631.00 1632.00 1631.00 1630.00 1627.00 1621.00 1613.00 1609.00 1606.00 1604.00 1602.00 1600.00 1597.00 1594.00 1592.00 1590.00 1587.00 1585.00 1582.00 1579.00 1576.00 1573.00 1571.00 1568.00 1564.00 1558.00 1551.00 1547.00 1545.00 1542.00 1539.00 1533.00 1527.00 1519.00 1512.00 1506.00 1501.00 1494.00 1489.00 1483.00 1478.00 1472.00 1466.00 1458.00 1451.00 1444.00 1436.00 1428.00 1421.00 1414.00 1406.00 1399.00 1393.00 1387.00 1381.00 1377.00 1370.00 1363.00 1356.00 1350.00 1349.00 1346.00 1340.00 1331.00 1320.00 1309.00 1301.00 1293.00 1286.00 1279.00 1271.00 1262.00 1253.00 1245.00 1236.00 1226.00 1212.00 1202.00 1196.00 1194.00 1194.00 1190.00 1180.00 1169.00 1159.00 1149.00 1134.00 1119.00 1106.00 1095.00 1084.00 1070.00 1057.00 1044.00 1025.00 1007.00 995.00 985.00 973.00 959.00 945.00 931.00 915.00 902.00 888.00 873.00 854.00 838.00 826.00 810.00 794.00 776.00 763.00 754.00 743.00 735.00 727.00 715.00 700.00 692.00 681.00 670.00 661.00 650.00 639.00 629.00 618.00 605.00 596.00 587.00 574.00 558.00 550.00 550.00 550.00 555.00 574.00 593.00 605.00 615.00 622.00 624.00 623.00 630.00 656.00 681.00 709.00 725.00 720.00 717.00 719.00 720.00 721.00 724.00 732.00 742.00 751.00 765.00 778.00 787.00 792.00 797.00 805.00 818.00 831.00 841.00 853.00 864.00 875.00 882.00 888.00 894.00 898.00 902.00 905.00 906.00 906.00 903.00 902.00 902.00 903.00 905.00 909.00 912.00 915.00 916.00 912.00 900.00 886.00 875.00 863.00 848.00 841.00 834.00 824.00 810.00 789.00 765.00 741.00 708.00 671.00 647.00 627.00 608.00 585.00 557.00 507.00 445.00 394.00 349.00 300.00 255.00 232.00 224.00 217.00 211.00 212.00 213.00 214.00 216.00 218.00 219.00 219.00 219.00 215.00 213.00 212.00 210.00 209.00 208.00 208.00 208.00 208.00 208.00 208.00 208.00 208.00 208.00 207.00 207.00 206.00 206.00 205.00 204.00 204.00 204.00 204.00 205.00 205.00 205.00 205.00 205.00 205.00 205.00 205.00 205.00 206.00 206.00 206.00 206.00
1331.00 1328.00 1325.00 1321.00 1316.00 1311.00 1307.00 1302.00 1295.00 1289.00 1285.00 1283.00 1280.00 1279.00 1276.00 1273.00 1270.00 1266.00 1262.00 1256.00 1252.00 1249.00 1247.00 1247.00 1249.00 1253.00 1259.00 1265.00 1271.00 1275.00 1279.00 1283.00 1287.00 1291.00 1293.00 1295.00 1295.00 1294.00 1291.00 1284.00 1278.00 1272.00 1267.00 1263.00 1257.00 1250.00 1241.00 1233.00 1223.00 1212.00 1202.00 1191.00 1182.00 1174.00 1165.00 1156.00 1146.00 1136.00 1129.00 1124.00 1121.00 1119.00 1119.00 1120.00 1123.00 1127.00 1130.00 1133.00 1136.00 1139.00 1143.00 1147.00 1152.00 1158.00 1165.00 1172.00 1180.00 1189.00 1200.00 1214.00 1229.00 1244.00 1260.00 1278.00 1302.00 1320.00 1335.00 1354.00 1376.00 1394.00 1407.00 1416.00 1423.00 1433.00 1448.00 1462.00 1472.00 1477.00 1478.00 1480.00 1483.00 1489.00 1496.00 1505.00 1515.00 1524.00 1533.00 1541.00 1548.00 1556.00 1564.00 1570.00 1575.00 1578.00 1582.00 1584.00 1587.00 1589.00 1593.00 1598.00 1605.00 1612.00 1616.00 1621.00 1625.00 1629.00 1631.00 1632.00 1631.00 1630.00 1627.00 1621.00 1613.00 1608.00 1606.00 1604.00 1602.00 1601.00 1598.00 1596.00 1594.00 1592.00 1589.00 1586.00 1582.00 1579.00 1576.00 1573.00 1570.00 1567.00 1563.00 1559.00 1552.00 1548.00 1545.00 1543.00 1539.00 1534.00 1527.00 1519.00 1511.00 1505.00 1499.00 1494.00 1488.00 1482.00 1476.00 1470.00 1463.00 1456.00 1449.00 1442.00 1433.00 1425.00 1418.00 1411.00 1403.00 1397.00 1392.00 1388.00 1384.00 1378.00 1368.00 1357.00 1349.00 1344.00 1342.00 1340.00 1334.00 1325.00 1314.00 1304.00 1295.00 1287.00 1280.00 1273.00 1265.00 1257.00 1249.00 1240.00 1231.00 1221.00 1209.00 1199.00 1192.00 1187.00 1186.00 1182.00 1173.00 1162.00 1153.00 1142.00 1128.00 1111.00 1099.00 1089.00 1075.00 1062.00 1049.00 1034.00 1015.00 1001.00 990.00 980.00 967.00 953.00 938.00 923.00 909.00 895.00 879.00 865.00 851.00 835.00 823.00 805.00 789.00 772.00 762.00 751.00 742.00 734.00 727.00 715.00 702.00 692.00 681.00 671.00 661.00 651.00 640.00 629.00 619.00 606.00 595.00 584.00 570.00 554.00 550.00 551.00 554.00 563.00 586.00 608.00 621.00 632.00 640.00 643.00 646.00 655.00 676.00 694.00 720.00 732.00 728.00 727.00 727.00 727.00 727.00 735.00 752.00 764.00 769.00 775.00 786.00 795.00 801.00 805.00 813.00 825.00 836.00 848.00 861.00 872.00 882.00 890.00 896.00 902.00 908.00 912.00 915.00 916.00 915.00 912.00 911.00 911.00 914.00 918.00 923.00 929.00 932.00 932.00 923.00 907.00 890.00 876.00 864.00 850.00 844.00 839.00 828.00 814.00 795.00 768.00 742.00 710.00 681.00 655.00 632.00 611.00 590.00 569.00 533.00 475.00 418.00 377.00 340.00 295.00 260.00 244.00 233.00 226.00 225.00 226.00 230.00 237.00 241.00 243.00 241.00 230.00 219.00 214.00 213.00 211.00 209.00 208.00 208.00 208.00 208.00 208.00 208.00 208.00 208.00 208.00 207.00 207.00 207.00 206.00 206.00 205.00 204.00 204.00 204.00 205.00 205.00 205.00 205.00 205.00 205.00 205.00 205.00 206.00 206.00 206.00 206.00 206.00
1329.00 1326.00 1324.00 1321.00 1317.00 1312.00 1308.00 1303.00 1297.00 1291.00 1286.00 1281.00 1276.00 1273.00 1270.00 1267.00 1264.00 1261.00 1257.00 1252.00 1248.00 1247.00 1246.00 1247.00 1248.00 1252.00 1258.00 1264.00 1271.00 1276.00 1280.00 1283.00 1285.00 1288.00 1292.00 1294.00 1295.00 1293.00 1288.00 1281.00 1275.00 1270.00 1266.00 1262.00 1257.00 1249.00 1241.00 1232.00 1221.00 1210.00 1200.00 1188.00 1179.00 1170.00 1162.00 1152.00 1142.00 1133.00 1127.00 1123.00 1120.00 1119.00 1119.00 1121.00 1123.00 1127.00 1130.00 1133.00 1136.00 1139.00 1143.00 1148.00 1153.00 1159.00 1166.00 1173.00 1181.00 1190.00 1201.00 1214.00 1227.00 1241.00 1257.00 1278.00 1304.00 1323.00 1338.00 1355.00 1377.00 1397.00 1412.00 1422.00 1431.00 1448.00 1464.00 1478.00 1488.00 1492.00 1493.00 1494.00 1495.00 1497.00 1502.00 1508.00 1516.00 1525.00 1533.00 1541.00 1549.00 1557.00 1564.00 1570.00 1576.00 1580.00 1584.00 1587.00 1589.00 1592.00 1595.00 1600.00 1607.00 1613.00 1618.00 1622.00 1627.00 1630.00 1632.00 1632.00 1631.00 1630.00 1627.00 1621.00 1614.00 1608.00 1605.00 1604.00 1603.00 1601.00 1598.00 1596.00 1594.00 1592.00 1590.00 1586.00 1583.00 1580.00 1577.00 1573.00 1570.00 1566.00 1562.00 1557.00 1553.00 1548.00 1545.00 1542.00 1538.00 1532.00 1526.00 1518.00 1510.00 1504.00 1498.00 1492.00 1487.00 1480.00 1474.00 1468.00 1461.00 1454.00 1447.00 1439.00 1431.00 1422.00 1414.00 1408.00 1401.00 1395.00 1392.00 1390.00 1386.00 1379.00 1369.00 1358.00 1348.00 1339.00 1334.00 1332.00 1326.00 1318.00 1308.00 1297.00 1288.00 1280.00 1273.00 1267.00 1260.00 1253.00 1244.00 1235.00 1225.00 1215.00 1206.00 1196.00 1188.00 1182.00 1179.00 1174.00 1166.00 1156.00 1146.00 1135.00 1120.00 1104.00 1093.00 1081.00 1066.00 1053.00 1041.00 1024.00 1007.00 995.00 985.00 974.00 960.00 946.00 931.00 916.00 902.00 887.00 872.00 859.00 845.00 831.00 815.00 800.00 784.00 770.00 761.00 751.00 741.00 734.00 726.00 714.00 703.00 692.00 681.00 671.00 659.00 649.00 638.00 628.00 618.00 606.00 594.00 582.00 566.00 551.00 551.00 554.00 558.00 569.00 598.00 621.00 636.00 647.00 657.00 667.00 672.00 679.00 689.00 705.00 726.00 736.00 735.00 734.00 733.00 733.00 735.00 749.00 769.00 781.00 785.00 788.00 794.00 801.00 807.00 814.00 821.00 831.00 841.00 855.00 867.00 878.00 889.00 898.00 904.00 910.00 916.00 921.00 924.00 926.00 925.00 923.00 922.00 923.00 928.00 936.00 943.00 947.00 948.00 942.00 929.00 912.00 894.00 879.00 865.00 853.00 847.00 842.00 834.00 820.00 802.00 775.00 742.00 710.00 686.00 664.00 638.00 614.00 593.00 572.00 546.00 498.00 445.00 404.00 378.00 348.00 319.00 300.00 279.00 262.00 252.00 248.00 251.00 261.00 271.00 275.00 262.00 239.00 221.00 216.00 215.00 211.00 209.00 208.00 207.00 208.00 208.00 208.00 208.00 208.00 208.00 208.00 207.00 207.00 207.00 206.00 206.00 205.00 205.00 205.00 205.00 205.00 205.00 205.00 205.00 205.00 205.00 205.00 206.00 206.00 206.00 206.00 206.00 206.00
1325.00 1323.00 1322.00 1320.00 1316.00 1312.00 1308.00 1303.00 1298.00 1292.00 1286.00 1279.00 1272.00 1267.00 1265.00 1262.00 1259.00 1256.00 1252.00 1249.00 1247.00 1245.00 1245.00 1246.00 1248.00 1251.00 1257.00 1264.00 1271.00 1276.00 1281.00 1283.00 1283.00 1285.00 1289.00 1292.00 1292.00 1291.00 1285.00 1279.00 1273.00 1268.00 1265.00 1261.00 1256.00 1248.00 1240.00 1230.00 1218.00 1208.00 1197.00 1185.00 1176.00 1167.00 1158.00 1148.00 1138.00 1130.00 1124.00 1121.00 1119.00 1119.00 1119.00 1121.00 1123.00 1127.00 1130.00 1133.00 1136.00 1140.00 1144.00 1148.00 1154.00 1160.00 1167.00 1174.00 1182.00 1193.00 1203.00 1216.00 1228.00 1243.00 1257.00 1278.00 1304.00 1326.00 1342.00 1357.00 1379.00 1399.00 1415.00 1427.00 1441.00 1460.00 1478.00 1493.00 1503.00 1508.00 1509.00 1509.00 1509.00 1510.00 1511.00 1513.00 1518.00 1525.00 1533.00 1541.00 1550.00 1557.00 1564.00 1570.00 1577.00 1582.00 1585.00 1588.00 1591.00 1594.00 1598.00 1602.00 1608.00 1615.00 1620.00 1624.00 1628.00 1631.00 1632.00 1632.00 1631.00 1630.00 1627.00 1623.00 1616.00 1609.00 1606.00 1604.00 1602.00 1599.00 1596.00 1594.00 1593.00 1591.00 1589.00 1586.00 1584.00 1581.00 1578.00 1574.00 1570.00 1566.00 1561.00 1557.00 1552.00 1548.00 1544.00 1540.00 1536.00 1531.00 1525.00 1517.00 1510.00 1503.00 1497.00 1491.00 1484.00 1478.00 1472.00 1466.00 1459.00 1452.00 1445.00 1437.00 1429.00 1420.00 1412.00 1404.00 1397.00 1391.00 1391.00 1389.00 1384.00 1377.00 1367.00 1357.00 1347.00 1338.00 1328.00 1323.00 1318.00 1311.00 1300.00 1289.00 1281.00 1273.00 1267.00 1262.00 1256.00 1248.00 1238.00 1227.00 1218.00 1209.00 1200.00 1190.00 1182.00 1176.00 1172.00 1167.00 1159.00 1150.00 1140.00 1128.00 1112.00 1099.00 1087.00 1073.00 1058.00 1046.00 1032.00 1015.00 1000.00 990.00 980.00 969.00 954.00 939.00 924.00 909.00 895.00 879.00 865.00 853.00 838.00 825.00 808.00 793.00 780.00 769.00 759.00 750.00 742.00 735.00 725.00 713.00 703.00 691.00 680.00 670.00 659.00 648.00 637.00 626.00 616.00 605.00 593.00 581.00 563.00 551.00 553.00 559.00 563.00 577.00 613.00 636.00 650.00 663.00 678.00 690.00 693.00 696.00 704.00 720.00 733.00 740.00 740.00 740.00 740.00 742.00 747.00 763.00 780.00 792.00 796.00 799.00 803.00 808.00 816.00 824.00 831.00 837.00 845.00 860.00 873.00 884.00 895.00 905.00 912.00 917.00 923.00 928.00 933.00 935.00 936.00 937.00 941.00 947.00 954.00 960.00 965.00 968.00 966.00 954.00 934.00 915.00 897.00 882.00 867.00 855.00 848.00 844.00 838.00 824.00 806.00 784.00 745.00 710.00 688.00 671.00 647.00 622.00 598.00 575.00 551.00 517.00 473.00 432.00 412.00 399.00 390.00 379.00 351.00 318.00 299.00 286.00 281.00 285.00 293.00 297.00 281.00 253.00 232.00 225.00 220.00 214.00 209.00 208.00 208.00 208.00 208.00 208.00 208.00 208.00 208.00 208.00 207.00 207.00 207.00 207.00 206.00 206.00 205.00 205.00 205.00 205.00 205.00 205.00 205.00 206.00 206.00 206.00 206.00 206.00 206.00 206.00 206.00 206.00
1321.00 1320.00 1319.00 1317.00 1314.00 1310.00 1306.00 1302.00 1297.00 1292.00 1286.00 1278.00 1270.00 1265.00 1262.00 1259.00 1256.00 1252.00 1250.00 1247.00 1245.00 1244.00 1244.00 1245.00 1247.00 1251.00 1257.00 1264.00 1271.00 1276.00 1280.00 1281.00 1281.00 1281.00 1284.00 1287.00 1289.00 1287.00 1282.00 1276.00 1271.00 1267.00 1263.00 1259.00 1254.00 1246.00 1237.00 1227.00 1216.00 1205.00 1192.00 1181.00 1172.00 1164.00 1155.00 1144.00 1134.00 1127.00 1121.00 1119.00 1118.00 1118.00 1119.00 1121.00 1123.00 1126.00 1129.00 1132.00 1136.00 1139.00 1143.00 1149.00 1154.00 1160.00 1167.00 1175.00 1184.00 1195.00 1206.00 1219.00 1229.00 1244.00 1262.00 1290.00 1313.00 1329.00 1344.00 1359.00 1382.00 1400.00 1418.00 1431.00 1447.00 1466.00 1487.00 1502.00 1511.00 1517.00 1523.00 1524.00 1523.00 1521.00 1521.00 1521.00 1523.00 1528.00 1534.00 1541.00 1549.00 1557.00 1563.00 1569.00 1576.00 1581.00 1585.00 1588.00 1592.00 1595.00 1599.00 1604.00 1610.00 1615.00 1620.00 1624.00 1628.00 1631.00 1632.00 1632.00 1631.00 1629.00 1627.00 1624.00 1619.00 1612.00 1607.00 1604.00 1600.00 1597.00 1594.00 1592.00 1591.00 1590.00 1588.00 1585.00 1583.00 1581.00 1578.00 1574.00 1570.00 1565.00 1561.00 1556.00 1552.00 1547.00 1543.00 1539.00 1534.00 1531.00 1524.00 1517.00 1510.00 1503.00 1496.00 1489.00 1482.00 1477.00 1471.00 1465.00 1457.00 1450.00 1442.00 1435.00 1426.00 1417.00 1408.00 1400.00 1393.00 1388.00 1386.00 1385.00 1381.00 1373.00 1364.00 1354.00 1345.00 1335.00 1325.00 1316.00 1309.00 1303.00 1291.00 1280.00 1272.00 1264.00 1260.00 1256.00 1250.00 1241.00 1230.00 1220.00 1212.00 1204.00 1195.00 1185.00 1177.00 1170.00 1165.00 1160.00 1153.00 1144.00 1133.00 1119.00 1105.00 1093.00 1080.00 1063.00 1050.00 1038.00 1023.00 1006.00 994.00 985.00 976.00 963.00 947.00 932.00 917.00 903.00 888.00 872.00 858.00 846.00 833.00 819.00 802.00 786.00 777.00 768.00 758.00 750.00 743.00 735.00 725.00 712.00 702.00 692.00 681.00 671.00 659.00 648.00 637.00 625.00 615.00 604.00 593.00 578.00 561.00 552.00 557.00 563.00 571.00 595.00 630.00 648.00 663.00 679.00 699.00 710.00 711.00 714.00 724.00 737.00 744.00 746.00 748.00 748.00 750.00 754.00 762.00 776.00 791.00 799.00 803.00 806.00 810.00 817.00 826.00 835.00 841.00 844.00 851.00 864.00 879.00 890.00 901.00 911.00 918.00 924.00 930.00 936.00 942.00 946.00 950.00 953.00 957.00 964.00 970.00 976.00 984.00 987.00 983.00 966.00 941.00 918.00 899.00 884.00 869.00 856.00 849.00 845.00 838.00 824.00 807.00 789.00 755.00 714.00 690.00 675.00 656.00 634.00 608.00 579.00 556.00 531.00 497.00 464.00 450.00 439.00 428.00 412.00 389.00 359.00 335.00 321.00 311.00 306.00 306.00 308.00 299.00 279.00 257.00 250.00 237.00 222.00 211.00 209.00 208.00 208.00 208.00 208.00 208.00 208.00 208.00 208.00 208.00 207.00 207.00 207.00 207.00 206.00 206.00 205.00 205.00 205.00 205.00 206.00 206.00 206.00 206.00 206.00 206.00 206.00 206.00 206.00 206.00 207.00
1318.00 1317.00 1316.00 1315.00 1313.00 1309.00 1305.00 1300.00 1296.00 1290.00 1284.00 1277.00 1271.00 1265.00 1260.00 1257.00 1253.00 1250.00 1247.00 1245.00 1244.00 1243.00 1243.00 1244.00 1247.00 1252.00 1258.00 1265.00 1271.00 1276.00 1278.00 1279.00 1279.00 1278.00 1279.00 1282.00 1284.00 1282.00 1278.00 1273.00 1268.00 1265.00 1261.00 1257.00 1251.00 1242.00 1234.00 1224.00 1213.00 1201.00 1187.00 1176.00 1168.00 1160.00 1151.00 1141.00 1131.00 1124.00 1119.00 1117.00 1117.00 1118.00 1119.00 1121.00 1123.00 1126.00 1129.00 1132.00 1135.00 1138.00 1143.00 1148.00 1154.00 1160.00 1167.00 1175.00 1185.00 1196.00 1209.00 1221.00 1231.00 1244.00 1264.00 1297.00 1323.00 1338.00 1350.00 1362.00 1382.00 1401.00 1420.00 1432.00 1449.00 1470.00 1491.00 1506.00 1515.00 1522.00 1531.00 1534.00 1533.00 1532.00 1531.00 1531.00 1531.00 1533.00 1537.00 1543.00 1550.00 1556.00 1561.00 1567.00 1572.00 1578.00 1582.00 1586.00 1590.00 1594.00 1598.00 1603.00 1609.00 1614.00 1619.00 1624.00 1627.00 1630.00 1632.00 1632.00 1631.00 1629.00 1626.00 1623.00 1619.00 1615.00 1609.00 1603.00 1599.00 1595.00 1592.00 1590.00 1589.00 1588.00 1586.00 1584.00 1581.00 1579.00 1576.00 1572.00 1569.00 1565.00 1560.00 1556.00 1551.00 1547.00 1542.00 1538.00 1534.00 1530.00 1525.00 1519.00 1513.00 1505.00 1497.00 1489.00 1482.00 1476.00 1470.00 1463.00 1455.00 1448.00 1441.00 1433.00 1425.00 1416.00 1406.00 1397.00 1390.00 1383.00 1381.00 1381.00 1376.00 1368.00 1360.00 1352.00 1343.00 1333.00 1324.00 1313.00 1303.00 1292.00 1281.00 1271.00 1263.00 1257.00 1252.00 1249.00 1243.00 1234.00 1224.00 1214.00 1206.00 1198.00 1190.00 1181.00 1173.00 1166.00 1160.00 1155.00 1147.00 1137.00 1124.00 1110.00 1099.00 1086.00 1071.00 1055.00 1044.00 1030.00 1014.00 1001.00 990.00 982.00 971.00 956.00 941.00 925.00 911.00 897.00 880.00 864.00 852.00 840.00 827.00 813.00 796.00 784.00 776.00 766.00 757.00 748.00 740.00 732.00 724.00 712.00 701.00 692.00 682.00 671.00 658.00 647.00 637.00 624.00 614.00 604.00 592.00 576.00 562.00 555.00 560.00 569.00 584.00 616.00 643.00 660.00 676.00 697.00 717.00 726.00 728.00 733.00 743.00 750.00 753.00 754.00 755.00 757.00 760.00 766.00 776.00 789.00 800.00 805.00 808.00 812.00 818.00 827.00 837.00 846.00 852.00 857.00 862.00 873.00 885.00 895.00 907.00 916.00 924.00 930.00 938.00 945.00 950.00 955.00 959.00 962.00 968.00 976.00 986.00 996.00 1005.00 1010.00 1005.00 981.00 950.00 922.00 900.00 885.00 871.00 858.00 849.00 844.00 838.00 823.00 806.00 789.00 761.00 722.00 694.00 678.00 662.00 642.00 619.00 590.00 564.00 538.00 512.00 488.00 470.00 453.00 435.00 415.00 396.00 376.00 354.00 341.00 331.00 323.00 319.00 318.00 310.00 297.00 282.00 268.00 246.00 227.00 214.00 210.00 209.00 208.00 208.00 208.00 208.00 208.00 208.00 208.00 208.00 207.00 207.00 207.00 207.00 206.00 206.00 206.00 205.00 205.00 206.00 206.00 206.00 206.00 206.00 206.00 206.00 206.00 206.00 206.00 207.00 207.00
1316.00 1315.00 1314.00 1313.00 1311.00 1308.00 1303.00 1299.00 1294.00 1287.00 1280.00 1276.00 1271.00 1266.00 1260.00 1256.00 1251.00 1247.00 1245.00 1243.00 1243.00 1242.00 1241.00 1242.00 1245.00 1252.00 1258.00 1265.00 1271.00 1275.00 1278.00 1278.00 1278.00 1277.00 1277.00 1278.00 1278.00 1277.00 1273.00 1269.00 1266.00 1262.00 1259.00 1255.00 1249.00 1239.00 1230.00 1219.00 1208.00 1195.00 1182.00 1172.00 1164.00 1157.00 1148.00 1137.00 1128.00 1121.00 1117.00 1116.00 1116.00 1117.00 1118.00 1120.00 1122.00 1125.00 1128.00 1131.00 1134.00 1138.00 1143.00 1149.00 1154.00 1161.00 1168.00 1176.00 1186.00 1197.00 1211.00 1223.00 1234.00 1245.00 1266.00 1299.00 1326.00 1343.00 1359.00 1372.00 1383.00 1400.00 1420.00 1434.00 1451.00 1471.00 1492.00 1508.00 1516.00 1525.00 1537.00 1544.00 1546.00 1544.00 1541.00 1541.00 1541.00 1542.00 1544.00 1549.00 1554.00 1559.00 1562.00 1567.00 1571.00 1577.00 1581.00 1585.00 1589.00 1593.00 1597.00 1601.00 1607.00 1613.00 1618.00 1624.00 1628.00 1631.00 1633.00 1633.00 1631.00 1629.00 1625.00 1622.00 1619.00 1616.00 1610.00 1603.00 1597.00 1594.00 1592.00 1590.00 1588.00 1586.00 1584.00 1582.00 1579.00 1577.00 1574.00 1571.00 1567.00 1564.00 1560.00 1556.00 1552.00 1547.00 1542.00 1538.00 1534.00 1529.00 1525.00 1520.00 1513.00 1506.00 1497.00 1489.00 1482.00 1475.00 1468.00 1461.00 1453.00 1446.00 1439.00 1431.00 1423.00 1414.00 1404.00 1395.00 1386.00 1380.00 1376.00 1375.00 1371.00 1364.00 1357.00 1349.00 1340.00 1329.00 1321.00 1311.00 1300.00 1289.00 1277.00 1267.00 1260.00 1253.00 1247.00 1241.00 1236.00 1228.00 1218.00 1209.00 1200.00 1191.00 1183.00 1176.00 1169.00 1162.00 1156.00 1149.00 1141.00 1130.00 1116.00 1103.00 1092.00 1077.00 1062.00 1049.00 1037.00 1022.00 1007.00 996.00 987.00 977.00 965.00 950.00 935.00 920.00 906.00 890.00 872.00 858.00 846.00 835.00 823.00 808.00 794.00 783.00 774.00 763.00 752.00 744.00 735.00 726.00 719.00 709.00 699.00 691.00 680.00 669.00 657.00 646.00 637.00 625.00 613.00 602.00 590.00 576.00 565.00 559.00 562.00 576.00 598.00 629.00 653.00 671.00 691.00 717.00 732.00 738.00 740.00 746.00 755.00 758.00 759.00 760.00 761.00 766.00 772.00 781.00 790.00 800.00 807.00 811.00 816.00 821.00 828.00 836.00 846.00 855.00 864.00 870.00 875.00 882.00 891.00 901.00 912.00 922.00 931.00 939.00 946.00 952.00 957.00 962.00 966.00 972.00 979.00 991.00 1004.00 1011.00 1017.00 1022.00 1018.00 997.00 965.00 930.00 901.00 886.00 873.00 859.00 849.00 843.00 837.00 822.00 804.00 786.00 762.00 729.00 701.00 684.00 667.00 646.00 624.00 598.00 572.00 543.00 517.00 497.00 474.00 451.00 431.00 413.00 397.00 383.00 365.00 353.00 345.00 339.00 334.00 328.00 316.00 303.00 289.00 270.00 243.00 224.00 217.00 212.00 209.00 208.00 208.00 208.00 208.00 208.00 208.00 208.00 208.00 207.00 207.00 207.00 207.00 206.00 206.00 206.00 206.00 206.00 206.00 206.00 206.00 206.00 206.00 206.00 206.00 206.00 207.00 207.00 207.00 207.00
1313.00 1312.00 1311.00 1311.00 1310.00 1307.00 1302.00 1296.00 1290.00 1283.00 1278.00 1275.00 1271.00 1266.00 1260.00 1255.00 1250.00 1245.00 1242.00 1241.00 1241.00 1241.00 1240.00 1240.00 1243.00 1251.00 1257.00 1264.00 1270.00 1275.00 1277.00 1277.00 1277.00 1276.00 1275.00 1274.00 1274.00 1273.00 1270.00 1267.00 1263.00 1260.00 1257.00 1254.00 1249.00 1238.00 1227.00 1214.00 1202.00 1189.00 1177.00 1168.00 1161.00 1153.00 1144.00 1134.00 1125.00 1119.00 1115.00 1115.00 1115.00 1116.00 1118.00 1119.00 1122.00 1125.00 1128.00 1131.00 1134.00 1138.00 1143.00 1149.00 1155.00 1162.00 1169.00 1177.00 1187.00 1199.00 1211.00 1225.00 1237.00 1248.00 1268.00 1298.00 1325.00 1343.00 1365.00 1382.00 1395.00 1412.00 1421.00 1435.00 1453.00 1472.00 1490.00 1507.00 1515.00 1525.00 1541.00 1550.00 1554.00 1555.00 1553.00 1552.00 1551.00 1552.00 1554.00 1556.00 1560.00 1563.00 1567.00 1571.00 1575.00 1580.00 1582.00 1586.00 1590.00 1594.00 1598.00 1602.00 1607.00 1613.00 1619.00 1625.00 1630.00 1632.00 1633.00 1633.00 1631.00 1628.00 1624.00 1621.00 1619.00 1616.00 1611.00 1604.00 1596.00 1593.00 1591.00 1589.00 1587.00 1585.00 1583.00 1581.00 1578.00 1575.00 1572.00 1569.00 1566.00 1563.00 1559.00 1556.00 1553.00 1548.00 1543.00 1538.00 1533.00 1528.00 1524.00 1518.00 1512.00 1505.00 1496.00 1488.00 1480.00 1473.00 1466.00 1458.00 1450.00 1443.00 1435.00 1427.00 1419.00 1411.00 1401.00 1391.00 1383.00 1377.00 1372.00 1369.00 1365.00 1360.00 1353.00 1345.00 1337.00 1326.00 1317.00 1307.00 1297.00 1286.00 1275.00 1266.00 1259.00 1251.00 1242.00 1234.00 1227.00 1219.00 1211.00 1203.00 1195.00 1186.00 1178.00 1170.00 1163.00 1158.00 1151.00 1145.00 1137.00 1124.00 1109.00 1097.00 1084.00 1067.00 1054.00 1042.00 1029.00 1014.00 1002.00 992.00 983.00 972.00 959.00 944.00 930.00 915.00 901.00 883.00 865.00 852.00 841.00 831.00 819.00 805.00 793.00 781.00 771.00 761.00 750.00 741.00 732.00 721.00 713.00 703.00 695.00 687.00 677.00 666.00 654.00 645.00 637.00 624.00 611.00 599.00 587.00 575.00 566.00 560.00 564.00 582.00 607.00 638.00 662.00 682.00 709.00 734.00 747.00 750.00 750.00 756.00 762.00 764.00 766.00 768.00 770.00 775.00 783.00 793.00 803.00 811.00 818.00 822.00 827.00 833.00 837.00 843.00 850.00 860.00 871.00 881.00 886.00 890.00 897.00 906.00 917.00 928.00 938.00 946.00 953.00 958.00 964.00 971.00 977.00 983.00 989.00 1001.00 1011.00 1016.00 1021.00 1023.00 1019.00 1001.00 971.00 941.00 906.00 888.00 875.00 862.00 850.00 843.00 834.00 820.00 803.00 785.00 762.00 733.00 708.00 689.00 671.00 647.00 621.00 599.00 576.00 547.00 515.00 496.00 472.00 446.00 427.00 412.00 399.00 387.00 373.00 362.00 356.00 352.00 346.00 337.00 322.00 307.00 291.00 270.00 246.00 229.00 221.00 214.00 210.00 209.00 208.00 208.00 208.00 208.00 208.00 208.00 208.00 208.00 207.00 207.00 207.00 207.00 206.00 206.00 206.00 206.00 206.00 206.00 206.00 206.00 206.00 206.00 206.00 207.00 207.00 207.00 207.00 207.00
1310.00 1309.00 1309.00 1309.00 1309.00 1306.00 1301.00 1294.00 1287.00 1281.00 1277.00 1274.00 1270.00 1265.00 1259.00 1254.00 1248.00 1244.00 1240.00 1240.00 1239.00 1239.00 1239.00 1239.00 1242.00 1250.00 1256.00 1263.00 1269.00 1273.00 1276.00 1276.00 1276.00 1274.00 1272.00 1271.00 1270.00 1270.00 1268.00 1265.00 1262.00 1259.00 1257.00 1253.00 1248.00 1237.00 1223.00 1209.00 1197.00 1185.00 1174.00 1165.00 1157.00 1149.00 1139.00 1129.00 1121.00 1116.00 1114.00 1114.00 1114.00 1116.00 1117.00 1119.00 1122.00 1124.00 1127.00 1131.00 1134.00 1139.00 1144.00 1149.00 1156.00 1162.00 1169.00 1178.00 1188.00 1200.00 1212.00 1226.00 1238.00 1249.00 1269.00 1297.00 1323.00 1341.00 1367.00 1388.00 1409.00 1419.00 1426.00 1437.00 1456.00 1473.00 1489.00 1505.00 1514.00 1525.00 1542.00 1551.00 1557.00 1560.00 1561.00 1561.00 1560.00 1561.00 1562.00 1564.00 1566.00 1569.00 1573.00 1577.00 1581.00 1583.00 1585.00 1588.00 1591.00 1595.00 1599.00 1603.00 1608.00 1613.00 1619.00 1625.00 1631.00 1633.00 1634.00 1633.00 1631.00 1627.00 1623.00 1620.00 1618.00 1616.00 1612.00 1606.00 1598.00 1594.00 1591.00 1589.00 1586.00 1584.00 1582.00 1579.00 1577.00 1574.00 1571.00 1568.00 1564.00 1561.00 1557.00 1554.00 1551.00 1547.00 1542.00 1537.00 1532.00 1526.00 1521.00 1516.00 1510.00 1502.00 1494.00 1485.00 1478.00 1471.00 1464.00 1456.00 1448.00 1440.00 1432.00 1424.00 1416.00 1407.00 1398.00 1390.00 1383.00 1376.00 1370.00 1365.00 1360.00 1355.00 1348.00 1341.00 1333.00 1323.00 1314.00 1304.00 1294.00 1282.00 1270.00 1262.00 1256.00 1248.00 1240.00 1229.00 1219.00 1209.00 1202.00 1195.00 1190.00 1183.00 1174.00 1165.00 1158.00 1153.00 1146.00 1142.00 1132.00 1118.00 1105.00 1092.00 1074.00 1059.00 1047.00 1034.00 1020.00 1007.00 997.00 988.00 978.00 967.00 954.00 940.00 925.00 911.00 896.00 877.00 858.00 847.00 838.00 828.00 815.00 801.00 791.00 781.00 771.00 761.00 750.00 741.00 731.00 719.00 709.00 698.00 689.00 681.00 671.00 661.00 650.00 642.00 634.00 622.00 610.00 597.00 585.00 573.00 565.00 562.00 567.00 586.00 613.00 646.00 673.00 695.00 723.00 746.00 759.00 760.00 758.00 763.00 768.00 770.00 773.00 776.00 779.00 784.00 793.00 805.00 815.00 826.00 831.00 833.00 837.00 841.00 845.00 849.00 855.00 863.00 874.00 885.00 894.00 902.00 907.00 914.00 923.00 934.00 944.00 953.00 958.00 963.00 970.00 980.00 986.00 991.00 998.00 1008.00 1015.00 1019.00 1021.00 1021.00 1018.00 1003.00 976.00 953.00 913.00 892.00 877.00 864.00 852.00 842.00 831.00 818.00 803.00 784.00 763.00 736.00 712.00 693.00 674.00 648.00 614.00 594.00 574.00 547.00 509.00 491.00 468.00 442.00 425.00 411.00 400.00 390.00 379.00 369.00 364.00 361.00 354.00 341.00 326.00 309.00 289.00 270.00 250.00 233.00 222.00 215.00 211.00 210.00 209.00 209.00 209.00 209.00 208.00 208.00 208.00 208.00 207.00 207.00 207.00 207.00 206.00 206.00 206.00 206.00 206.00 206.00 206.00 206.00 206.00 206.00 207.00 207.00 207.00 207.00 207.00 207.00
1305.00 1305.00 1305.00 1305.00 1306.00 1304.00 1299.00 1293.00 1286.00 1281.00 1277.00 1273.00 1269.00 1264.00 1258.00 1252.00 1247.00 1242.00 1239.00 1238.00 1237.00 1237.00 1238.00 1238.00 1241.00 1250.00 1255.00 1262.00 1268.00 1272.00 1275.00 1276.00 1275.00 1272.00 1270.00 1269.00 1268.00 1268.00 1267.00 1265.00 1262.00 1259.00 1256.00 1253.00 1246.00 1235.00 1220.00 1206.00 1194.00 1182.00 1171.00 1161.00 1153.00 1145.00 1135.00 1126.00 1119.00 1115.00 1113.00 1112.00 1113.00 1115.00 1117.00 1119.00 1122.00 1124.00 1127.00 1130.00 1134.00 1138.00 1143.00 1149.00 1155.00 1162.00 1169.00 1179.00 1189.00 1200.00 1212.00 1226.00 1239.00 1250.00 1269.00 1293.00 1318.00 1338.00 1367.00 1391.00 1411.00 1421.00 1427.00 1438.00 1456.00 1473.00 1489.00 1504.00 1514.00 1525.00 1541.00 1551.00 1557.00 1561.00 1564.00 1566.00 1568.00 1569.00 1571.00 1572.00 1574.00 1577.00 1580.00 1582.00 1585.00 1587.00 1589.00 1591.00 1594.00 1597.00 1601.00 1605.00 1610.00 1614.00 1620.00 1626.00 1631.00 1633.00 1634.00 1633.00 1630.00 1627.00 1623.00 1620.00 1617.00 1616.00 1613.00 1609.00 1602.00 1597.00 1591.00 1588.00 1585.00 1583.00 1580.00 1578.00 1575.00 1572.00 1569.00 1566.00 1562.00 1559.00 1555.00 1551.00 1547.00 1544.00 1540.00 1535.00 1529.00 1524.00 1518.00 1513.00 1507.00 1499.00 1493.00 1483.00 1476.00 1468.00 1461.00 1452.00 1445.00 1437.00 1428.00 1420.00 1412.00 1404.00 1394.00 1386.00 1382.00 1375.00 1369.00 1363.00 1357.00 1350.00 1344.00 1338.00 1329.00 1320.00 1311.00 1301.00 1290.00 1277.00 1267.00 1259.00 1253.00 1245.00 1236.00 1227.00 1215.00 1201.00 1191.00 1185.00 1182.00 1177.00 1171.00 1163.00 1155.00 1148.00 1141.00 1136.00 1126.00 1111.00 1100.00 1084.00 1064.00 1051.00 1039.00 1025.00 1012.00 1001.00 992.00 984.00 973.00 960.00 949.00 936.00 921.00 907.00 892.00 872.00 853.00 843.00 833.00 822.00 807.00 796.00 786.00 777.00 768.00 757.00 747.00 737.00 727.00 717.00 706.00 694.00 684.00 675.00 663.00 653.00 645.00 637.00 628.00 620.00 611.00 597.00 585.00 570.00 564.00 566.00 574.00 592.00 621.00 655.00 682.00 707.00 736.00 756.00 767.00 768.00 767.00 769.00 772.00 776.00 781.00 783.00 786.00 794.00 805.00 818.00 830.00 839.00 840.00 841.00 844.00 848.00 852.00 857.00 862.00 868.00 876.00 886.00 898.00 908.00 917.00 924.00 930.00 939.00 949.00 957.00 963.00 968.00 976.00 984.00 991.00 996.00 1004.00 1013.00 1019.00 1020.00 1021.00 1020.00 1018.00 1007.00 986.00 962.00 920.00 897.00 881.00 866.00 853.00 841.00 829.00 816.00 802.00 785.00 765.00 741.00 715.00 695.00 677.00 651.00 610.00 588.00 570.00 548.00 508.00 482.00 462.00 441.00 423.00 411.00 401.00 392.00 382.00 374.00 371.00 366.00 356.00 342.00 326.00 306.00 285.00 267.00 249.00 233.00 220.00 214.00 211.00 210.00 210.00 209.00 209.00 209.00 209.00 208.00 208.00 208.00 208.00 207.00 207.00 207.00 207.00 207.00 206.00 206.00 206.00 206.00 206.00 206.00 207.00 207.00 207.00 207.00 207.00 207.00 207.00 207.00
1300.00 1300.00 1300.00 1301.00 1303.00 1301.00 1297.00 1291.00 1285.00 1280.00 1276.00 1273.00 1269.00 1263.00 1257.00 1250.00 1245.00 1240.00 1238.00 1236.00 1236.00 1236.00 1237.00 1238.00 1240.00 1250.00 1255.00 1262.00 1267.00 1271.00 1275.00 1276.00 1274.00 1270.00 1268.00 1267.00 1267.00 1267.00 1266.00 1265.00 1263.00 1259.00 1255.00 1251.00 1244.00 1233.00 1217.00 1203.00 1191.00 1179.00 1167.00 1157.00 1149.00 1141.00 1131.00 1123.00 1117.00 1114.00 1111.00 1110.00 1112.00 1114.00 1116.00 1119.00 1122.00 1124.00 1127.00 1130.00 1133.00 1137.00 1142.00 1148.00 1154.00 1161.00 1169.00 1179.00 1190.00 1202.00 1214.00 1227.00 1239.00 1250.00 1270.00 1289.00 1313.00 1335.00 1365.00 1390.00 1410.00 1421.00 1427.00 1439.00 1456.00 1474.00 1489.00 1506.00 1517.00 1525.00 1539.00 1550.00 1557.00 1561.00 1565.00 1569.00 1573.00 1576.00 1580.00 1583.00 1585.00 1586.00 1587.00 1588.00 1589.00 1591.00 1592.00 1595.00 1597.00 1600.00 1603.00 1607.00 1611.00 1615.00 1620.00 1627.00 1632.00 1634.00 1634.00 1632.00 1629.00 1626.00 1622.00 1619.00 1617.00 1615.00 1613.00 1610.00 1605.00 1599.00 1592.00 1587.00 1584.00 1581.00 1578.00 1576.00 1573.00 1570.00 1567.00 1564.00 1561.00 1557.00 1553.00 1548.00 1543.00 1540.00 1536.00 1531.00 1527.00 1522.00 1517.00 1511.00 1504.00 1497.00 1490.00 1482.00 1473.00 1466.00 1458.00 1450.00 1442.00 1434.00 1425.00 1417.00 1409.00 1400.00 1390.00 1381.00 1377.00 1371.00 1366.00 1360.00 1352.00 1345.00 1340.00 1334.00 1325.00 1317.00 1308.00 1298.00 1288.00 1276.00 1265.00 1257.00 1251.00 1242.00 1233.00 1223.00 1212.00 1199.00 1187.00 1176.00 1170.00 1168.00 1166.00 1160.00 1152.00 1143.00 1136.00 1128.00 1117.00 1105.00 1093.00 1074.00 1056.00 1044.00 1031.00 1017.00 1005.00 997.00 988.00 979.00 968.00 956.00 945.00 932.00 917.00 904.00 888.00 867.00 850.00 839.00 828.00 815.00 801.00 791.00 780.00 771.00 762.00 752.00 742.00 732.00 722.00 714.00 703.00 692.00 681.00 671.00 657.00 646.00 639.00 633.00 622.00 618.00 610.00 598.00 585.00 570.00 568.00 576.00 584.00 600.00 631.00 665.00 691.00 717.00 746.00 764.00 774.00 776.00 776.00 776.00 777.00 782.00 788.00 790.00 795.00 806.00 819.00 831.00 841.00 847.00 849.00 849.00 851.00 855.00 860.00 864.00 869.00 875.00 881.00 888.00 899.00 911.00 923.00 932.00 940.00 947.00 954.00 961.00 968.00 974.00 983.00 990.00 995.00 1000.00 1007.00 1015.00 1021.00 1021.00 1020.00 1020.00 1017.00 1008.00 989.00 964.00 927.00 901.00 884.00 869.00 855.00 841.00 827.00 814.00 801.00 786.00 767.00 743.00 719.00 697.00 680.00 653.00 605.00 582.00 565.00 547.00 514.00 481.00 459.00 441.00 424.00 411.00 402.00 393.00 385.00 378.00 374.00 368.00 357.00 342.00 324.00 302.00 281.00 264.00 247.00 231.00 219.00 213.00 211.00 210.00 210.00 210.00 209.00 209.00 209.00 208.00 208.00 208.00 208.00 207.00 207.00 207.00 207.00 207.00 207.00 207.00 206.00 206.00 207.00 207.00 207.00 207.00 207.00 207.00 207.00 207.00 207.00 207.00
1294.00 1293.00 1293.00 1295.00 1298.00 1297.00 1294.00 1289.00 1283.00 1279.00 1276.00 1272.00 1268.00 1262.00 1255.00 1248.00 1242.00 1238.00 1236.00 1235.00 1234.00 1234.00 1235.00 1237.00 1240.00 1250.00 1254.00 1261.00 1266.00 1270.00 1274.00 1276.00 1274.00 1269.00 1267.00 1266.00 1266.00 1266.00 1266.00 1265.00 1263.00 1259.00 1254.00 1248.00 1240.00 1229.00 1214.00 1200.00 1188.00 1175.00 1162.00 1153.00 1145.00 1137.00 1129.00 1121.00 1116.00 1113.00 1110.00 1109.00 1111.00 1113.00 1116.00 1119.00 1122.00 1124.00 1127.00 1129.00 1132.00 1137.00 1142.00 1148.00 1154.00 1161.00 1169.00 1180.00 1191.00 1204.00 1219.00 1233.00 1245.00 1261.00 1279.00 1292.00 1314.00 1335.00 1364.00 1388.00 1410.00 1422.00 1428.00 1441.00 1456.00 1475.00 1491.00 1508.00 1520.00 1529.00 1539.00 1549.00 1556.00 1562.00 1567.00 1571.00 1576.00 1580.00 1585.00 1589.00 1590.00 1591.00 1592.00 1592.00 1592.00 1593.00 1596.00 1599.00 1601.00 1603.00 1606.00 1609.00 1612.00 1616.00 1620.00 1626.00 1632.00 1634.00 1634.00 1632.00 1629.00 1625.00 1622.00 1619.00 1617.00 1615.00 1613.00 1610.00 1606.00 1600.00 1593.00 1586.00 1582.00 1579.00 1577.00 1573.00 1570.00 1567.00 1564.00 1562.00 1559.00 1556.00 1553.00 1547.00 1541.00 1536.00 1532.00 1528.00 1525.00 1520.00 1514.00 1508.00 1501.00 1495.00 1488.00 1480.00 1471.00 1464.00 1455.00 1447.00 1439.00 1431.00 1422.00 1414.00 1406.00 1397.00 1387.00 1379.00 1372.00 1367.00 1362.00 1356.00 1349.00 1341.00 1335.00 1328.00 1321.00 1313.00 1304.00 1294.00 1283.00 1272.00 1262.00 1255.00 1247.00 1238.00 1229.00 1218.00 1207.00 1196.00 1185.00 1174.00 1163.00 1158.00 1157.00 1154.00 1148.00 1140.00 1130.00 1118.00 1107.00 1098.00 1084.00 1065.00 1050.00 1037.00 1022.00 1010.00 1000.00 993.00 984.00 974.00 963.00 953.00 941.00 928.00 914.00 900.00 883.00 862.00 847.00 835.00 824.00 812.00 800.00 790.00 777.00 766.00 756.00 747.00 738.00 729.00 720.00 712.00 702.00 690.00 679.00 670.00 656.00 643.00 634.00 629.00 620.00 615.00 608.00 598.00 585.00 573.00 578.00 587.00 598.00 615.00 643.00 676.00 700.00 728.00 756.00 772.00 782.00 785.00 785.00 783.00 782.00 787.00 794.00 798.00 805.00 818.00 830.00 840.00 848.00 855.00 859.00 859.00 859.00 862.00 866.00 871.00 877.00 883.00 887.00 892.00 902.00 913.00 924.00 937.00 946.00 953.00 961.00 968.00 977.00 985.00 993.00 998.00 1001.00 1005.00 1012.00 1020.00 1022.00 1021.00 1020.00 1019.00 1018.00 1013.00 995.00 967.00 932.00 906.00 888.00 872.00 857.00 841.00 826.00 812.00 799.00 784.00 765.00 743.00 722.00 700.00 682.00 658.00 613.00 578.00 562.00 545.00 522.00 492.00 463.00 443.00 426.00 413.00 404.00 395.00 387.00 381.00 375.00 368.00 355.00 340.00 319.00 298.00 279.00 261.00 244.00 228.00 217.00 212.00 211.00 210.00 210.00 210.00 209.00 209.00 209.00 208.00 208.00 208.00 208.00 208.00 207.00 207.00 207.00 207.00 207.00 207.00 207.00 207.00 207.00 207.00 207.00 207.00 207.00 207.00 207.00 207.00 207.00 207.00
1290.00 1289.00 1289.00 1290.00 1293.00 1293.00 1290.00 1285.00 1280.00 1276.00 1273.00 1270.00 1265.00 1260.00 1253.00 1246.00 1240.00 1235.00 1233.00 1233.00 1233.00 1233.00 1233.00 1235.00 1241.00 1249.00 1254.00 1259.00 1264.00 1268.00 1272.00 1274.00 1273.00 1269.00 1267.00 1265.00 1264.00 1265.00 1265.00 1265.00 1263.00 1258.00 1251.00 1244.00 1235.00 1222.00 1209.00 1196.00 1183.00 1169.00 1158.00 1149.00 1142.00 1133.00 1125.00 1118.00 1114.00 1111.00 1110.00 1109.00 1110.00 1113.00 1116.00 1119.00 1122.00 1124.00 1126.00 1129.00 1132.00 1136.00 1141.00 1147.00 1154.00 1161.00 1170.00 1181.00 1192.00 1206.00 1223.00 1237.00 1255.00 1274.00 1289.00 1304.00 1322.00 1342.00 1367.00 1391.00 1411.00 1422.00 1430.00 1444.00 1456.00 1478.00 1494.00 1511.00 1528.00 1536.00 1543.00 1550.00 1557.00 1563.00 1567.00 1570.00 1574.00 1576.00 1579.00 1582.00 1583.00 1584.00 1585.00 1588.00 1590.00 1593.00 1597.00 1600.00 1602.00 1604.00 1607.00 1610.00 1613.00 1616.00 1620.00 1625.00 1631.00 1634.00 1634.00 1632.00 1629.00 1625.00 1622.00 1619.00 1617.00 1615.00 1613.00 1610.00 1607.00 1601.00 1593.00 1586.00 1582.00 1578.00 1575.00 1572.00 1568.00 1564.00 1561.00 1560.00 1557.00 1555.00 1552.00 1546.00 1540.00 1534.00 1529.00 1525.00 1522.00 1518.00 1512.00 1505.00 1499.00 1493.00 1486.00 1477.00 1469.00 1460.00 1452.00 1444.00 1436.00 1428.00 1418.00 1410.00 1401.00 1392.00 1383.00 1375.00 1368.00 1362.00 1358.00 1352.00 1345.00 1337.00 1330.00 1323.00 1316.00 1309.00 1299.00 1288.00 1277.00 1267.00 1258.00 1250.00 1241.00 1233.00 1223.00 1212.00 1201.00 1191.00 1181.00 1172.00 1161.00 1152.00 1148.00 1145.00 1141.00 1135.00 1126.00 1113.00 1102.00 1090.00 1075.00 1058.00 1044.00 1030.00 1015.00 1004.00 996.00 989.00 980.00 969.00 959.00 950.00 937.00 924.00 910.00 896.00 878.00 859.00 844.00 833.00 822.00 810.00 798.00 789.00 779.00 767.00 757.00 747.00 737.00 729.00 721.00 712.00 700.00 688.00 678.00 669.00 657.00 643.00 631.00 623.00 615.00 610.00 604.00 595.00 586.00 582.00 591.00 605.00 621.00 639.00 661.00 688.00 711.00 744.00 768.00 783.00 792.00 794.00 794.00 792.00 790.00 793.00 799.00 805.00 816.00 828.00 838.00 847.00 855.00 863.00 867.00 867.00 867.00 870.00 874.00 879.00 886.00 892.00 895.00 900.00 907.00 916.00 926.00 938.00 950.00 960.00 968.00 977.00 987.00 996.00 1001.00 1006.00 1009.00 1014.00 1022.00 1027.00 1024.00 1021.00 1020.00 1020.00 1018.00 1014.00 999.00 968.00 933.00 911.00 892.00 875.00 859.00 841.00 825.00 811.00 799.00 784.00 766.00 745.00 725.00 702.00 683.00 664.00 629.00 582.00 563.00 547.00 527.00 506.00 474.00 446.00 429.00 415.00 405.00 396.00 389.00 382.00 375.00 365.00 352.00 336.00 314.00 293.00 276.00 258.00 241.00 225.00 216.00 212.00 211.00 210.00 210.00 209.00 209.00 209.00 209.00 208.00 208.00 208.00 208.00 208.00 207.00 207.00 207.00 207.00 207.00 207.00 207.00 207.00 207.00 207.00 207.00 207.00 207.00 207.00 207.00 207.00 207.00 207.00
1289.00 1287.00 1287.00 1287.00 1289.00 1288.00 1285.00 1281.00 1276.00 1273.00 1270.00 1266.00 1262.00 1256.00 1250.00 1243.00 1238.00 1233.00 1231.00 1232.00 1232.00 1231.00 1231.00 1234.00 1242.00 1250.00 1255.00 1259.00 1262.00 1266.00 1269.00 1271.00 1271.00 1269.00 1265.00 1264.00 1263.00 1264.00 1264.00 1264.00 1262.00 1257.00 1248.00 1239.00 1228.00 1215.00 1203.00 1191.00 1178.00 1164.00 1154.00 1146.00 1138.00 1129.00 1121.00 1115.00 1111.00 1109.00 1109.00 1109.00 1110.00 1113.00 1116.00 1119.00 1121.00 1124.00 1126.00 1128.00 1131.00 1136.00 1141.00 1147.00 1154.00 1161.00 1170.00 1182.00 1194.00 1208.00 1225.00 1239.00 1260.00 1280.00 1299.00 1315.00 1334.00 1354.00 1381.00 1402.00 1415.00 1424.00 1434.00 1447.00 1461.00 1485.00 1500.00 1522.00 1534.00 1540.00 1543.00 1548.00 1555.00 1561.00 1563.00 1563.00 1563.00 1564.00 1567.00 1569.00 1571.00 1574.00 1576.00 1581.00 1586.00 1590.00 1594.00 1598.00 1600.00 1602.00 1606.00 1610.00 1614.00 1617.00 1620.00 1624.00 1629.00 1632.00 1634.00 1633.00 1629.00 1625.00 1622.00 1619.00 1617.00 1615.00 1613.00 1610.00 1607.00 1601.00 1594.00 1587.00 1582.00 1578.00 1575.00 1571.00 1567.00 1562.00 1559.00 1557.00 1555.00 1553.00 1549.00 1545.00 1539.00 1533.00 1528.00 1523.00 1519.00 1515.00 1510.00 1503.00 1497.00 1490.00 1483.00 1475.00 1465.00 1456.00 1448.00 1440.00 1432.00 1424.00 1416.00 1406.00 1397.00 1388.00 1379.00 1371.00 1365.00 1359.00 1353.00 1348.00 1340.00 1332.00 1324.00 1317.00 1310.00 1302.00 1292.00 1282.00 1270.00 1261.00 1253.00 1244.00 1236.00 1228.00 1220.00 1210.00 1198.00 1187.00 1178.00 1168.00 1159.00 1150.00 1144.00 1138.00 1133.00 1128.00 1121.00 1112.00 1102.00 1086.00 1068.00 1052.00 1039.00 1024.00 1011.00 1001.00 993.00 985.00 976.00 966.00 957.00 946.00 933.00 920.00 907.00 892.00 873.00 856.00 842.00 831.00 819.00 807.00 795.00 786.00 778.00 768.00 759.00 747.00 737.00 728.00 719.00 709.00 698.00 687.00 678.00 668.00 656.00 643.00 630.00 619.00 611.00 607.00 603.00 598.00 596.00 600.00 612.00 631.00 648.00 664.00 681.00 700.00 725.00 759.00 779.00 793.00 800.00 802.00 803.00 802.00 801.00 801.00 805.00 813.00 826.00 836.00 845.00 855.00 863.00 870.00 874.00 875.00 876.00 878.00 882.00 888.00 893.00 897.00 902.00 908.00 914.00 921.00 930.00 943.00 957.00 968.00 977.00 988.00 997.00 1004.00 1009.00 1013.00 1016.00 1022.00 1029.00 1031.00 1027.00 1022.00 1020.00 1020.00 1018.00 1014.00 1000.00 968.00 932.00 914.00 897.00 878.00 861.00 840.00 824.00 811.00 800.00 787.00 769.00 748.00 726.00 703.00 684.00 666.00 635.00 589.00 567.00 550.00 531.00 509.00 480.00 451.00 433.00 418.00 406.00 398.00 389.00 382.00 373.00 361.00 348.00 330.00 309.00 289.00 272.00 254.00 237.00 223.00 216.00 212.00 211.00 210.00 209.00 209.00 209.00 209.00 209.00 209.00 209.00 208.00 208.00 208.00 208.00 207.00 207.00 207.00 207.00 207.00 207.00 207.00 207.00 207.00 207.00 207.00 207.00 207.00 207.00 207.00 208.00 208.00
1291.00 1288.00 1287.00 1286.00 1286.00 1285.00 1281.00 1276.00 1272.00 1269.00 1266.00 1262.00 1258.00 1253.00 1247.00 1241.00 1236.00 1231.00 1229.00 1231.00 1230.00 1229.00 1229.00 1235.00 1243.00 1250.00 1254.00 1258.00 1261.00 1263.00 1265.00 1267.00 1267.00 1265.00 1262.00 1261.00 1261.00 1263.00 1263.00 1263.00 1260.00 1253.00 1244.00 1234.00 1220.00 1208.00 1198.00 1186.00 1173.00 1161.00 1151.00 1142.00 1134.00 1126.00 1119.00 1113.00 1110.00 1108.00 1108.00 1109.00 1110.00 1113.00 1115.00 1118.00 1121.00 1123.00 1125.00 1128.00 1131.00 1136.00 1142.00 1148.00 1154.00 1161.00 1172.00 1184.00 1196.00 1211.00 1227.00 1244.00 1265.00 1285.00 1306.00 1326.00 1343.00 1363.00 1391.00 1408.00 1420.00 1428.00 1439.00 1450.00 1467.00 1489.00 1506.00 1528.00 1534.00 1535.00 1536.00 1538.00 1544.00 1548.00 1549.00 1549.00 1551.00 1552.00 1555.00 1559.00 1563.00 1566.00 1570.00 1576.00 1581.00 1586.00 1590.00 1594.00 1596.00 1599.00 1604.00 1610.00 1614.00 1617.00 1620.00 1623.00 1628.00 1632.00 1633.00 1633.00 1630.00 1626.00 1622.00 1619.00 1617.00 1615.00 1612.00 1610.00 1607.00 1602.00 1595.00 1588.00 1583.00 1579.00 1575.00 1572.00 1567.00 1563.00 1560.00 1556.00 1553.00 1550.00 1547.00 1543.00 1538.00 1533.00 1526.00 1521.00 1517.00 1513.00 1507.00 1500.00 1493.00 1487.00 1479.00 1471.00 1462.00 1453.00 1444.00 1436.00 1428.00 1420.00 1412.00 1403.00 1395.00 1386.00 1377.00 1369.00 1362.00 1355.00 1349.00 1343.00 1335.00 1326.00 1319.00 1312.00 1304.00 1296.00 1287.00 1275.00 1263.00 1255.00 1248.00 1239.00 1231.00 1224.00 1216.00 1206.00 1196.00 1185.00 1174.00 1165.00 1156.00 1149.00 1142.00 1133.00 1123.00 1117.00 1114.00 1109.00 1100.00 1083.00 1062.00 1047.00 1034.00 1019.00 1007.00 998.00 990.00 982.00 972.00 963.00 954.00 942.00 929.00 916.00 903.00 888.00 869.00 854.00 841.00 829.00 817.00 804.00 792.00 783.00 774.00 765.00 755.00 744.00 735.00 725.00 715.00 706.00 696.00 686.00 677.00 666.00 652.00 641.00 627.00 617.00 612.00 611.00 610.00 610.00 613.00 621.00 636.00 655.00 671.00 684.00 696.00 713.00 741.00 770.00 788.00 802.00 806.00 808.00 811.00 812.00 812.00 811.00 813.00 824.00 834.00 842.00 852.00 862.00 871.00 877.00 881.00 884.00 885.00 887.00 890.00 894.00 899.00 903.00 909.00 915.00 921.00 929.00 938.00 950.00 963.00 975.00 986.00 996.00 1003.00 1010.00 1018.00 1022.00 1024.00 1026.00 1031.00 1031.00 1027.00 1022.00 1020.00 1020.00 1018.00 1014.00 1000.00 968.00 932.00 916.00 898.00 879.00 861.00 840.00 823.00 810.00 800.00 789.00 772.00 750.00 726.00 703.00 683.00 665.00 641.00 608.00 574.00 556.00 535.00 508.00 479.00 456.00 438.00 421.00 408.00 400.00 391.00 381.00 370.00 358.00 343.00 324.00 304.00 284.00 267.00 249.00 233.00 221.00 215.00 212.00 210.00 210.00 209.00 209.00 209.00 209.00 209.00 209.00 209.00 208.00 208.00 208.00 208.00 208.00 207.00 207.00 207.00 207.00 207.00 207.00 207.00 207.00 207.00 207.00 207.00 207.00 207.00 208.00 208.00 208.00
